ply
format ascii 1.0
element vertex 744
property float x
property float y
property float z
property float nx
property float ny
property float nz
property uchar diffuse_red
property uchar diffuse_green
property uchar diffuse_blue
end_header
0.875941 1.73174 8.64412 -0.343988 -0.899404 -0.269713 106 99 86
0.896615 1.72741 8.61647 -0.29455 -0.91588 -0.272771 103 95 82
0.899526 1.72329 8.65136 -0.27106 -0.930638 -0.245846 105 97 83
0.91941 1.7242 8.6524 -0.186673 -0.927621 -0.323532 104 96 83
0.941533 1.72657 8.64585 -0.043256 -0.882728 -0.467888 99 93 78
0.944199 1.72685 8.63449 -0.0297507 -0.970175 -0.240573 96 90 76
1.05313 1.70368 8.62498 -0.261185 -0.921952 -0.285986 108 100 86
1.10393 1.69064 8.59272 -0.107586 -0.810845 -0.575287 115 106 92
1.107 1.68682 8.6335 -0.013146 -0.967152 -0.253858 108 100 87
1.11233 1.68561 8.57993 0.498427 -0.804472 -0.323103 116 107 91
1.12191 1.68378 8.60195 -0.0931601 -0.956729 -0.275666 115 106 93
1.10556 1.69178 8.59383 0.0109154 -0.780009 -0.625674 115 106 92
1.14467 1.67843 8.5867 -0.0413819 -0.93704 -0.346761 113 104 91
1.18426 1.67669 8.62143 0.158865 -0.955184 -0.249771 114 105 90
1.24768 1.6541 8.58311 -0.109233 -0.898614 -0.424924 114 106 90
1.24929 1.65432 8.58862 -0.529071 -0.717494 -0.453085 114 106 90
1.30002 1.64728 8.57146 -0.416936 -0.872383 -0.255173 115 105 88
1.30728 1.6645 8.61114 -0.539285 -0.599083 -0.591837 115 106 88
1.32626 1.64866 8.61081 -0.435891 -0.867217 -0.240693 111 104 87
1.32707 1.65776 8.59344 -0.344246 -0.838064 -0.423253 108 99 82
1.34814 1.64641 8.6039 -0.426744 -0.878214 -0.21594 115 107 88
1.36757 1.63775 8.5836 -0.457124 -0.848997 -0.265031 116 108 91
1.38985 1.63771 8.5859 -0.268597 -0.939146 -0.214149 113 105 87
1.49222 1.609 8.54584 -0.623939 -0.75048 -0.217898 90 85 73
1.53374 1.59011 8.53248 -0.220913 -0.946551 -0.235028 56 51 41
1.67837 1.56657 8.48721 -0.181907 -0.965934 -0.184069 107 98 82
1.67844 1.56362 8.48196 -0.123573 -0.966624 -0.224429 108 100 83
1.75008 1.55933 8.4903 -0.228354 -0.94622 -0.229178 111 104 88
1.74462 1.55547 8.47386 -0.263443 -0.920472 -0.288669 111 104 88
1.8005 1.55353 8.53215 -0.191121 -0.95664 -0.2198 91 84 68
1.81646 1.5515 8.52144 -0.25891 -0.950961 -0.16923 93 86 70
1.85438 1.53768 8.48824 -0.215184 -0.958739 -0.185786 90 84 67
1.87817 1.52929 8.50965 -0.129812 -0.970835 -0.201563 98 91 76
1.90103 1.5278 8.49173 -0.182004 -0.965188 -0.187849 93 86 70
1.92488 1.52625 8.47746 -0.190958 -0.96406 -0.184727 95 87 71
2.07938 1.48735 8.42388 -0.369726 -0.739074 -0.563092 89 82 65
2.10694 1.48344 8.44543 -0.173563 -0.965626 -0.193501 88 79 64
2.11409 1.48552 8.4418 -0.714292 -0.685723 -0.139895 88 80 64
2.12729 1.47968 8.42759 -0.248314 -0.942152 -0.225145 93 85 69
2.14046 1.48108 8.46623 -0.316137 -0.935853 -0.155683 87 78 62
2.17149 1.47358 8.46375 0.131108 -0.935097 -0.329247 80 72 56
2.18161 1.47334 8.42666 -0.178765 -0.958102 -0.223792 89 80 65
2.30656 1.44318 8.43426 0.0975364 -0.945947 -0.309309 91 85 68
2.36065 1.43462 8.42806 -0.52605 -0.838287 -0.14334 92 86 69
2.70023 1.38084 8.40397 -0.136314 -0.844064 -0.518627 116 109 92
2.72359 1.37771 8.42105 -0.286125 -0.615826 -0.734092 108 101 84
2.73922 1.37944 8.4156 -0.605202 -0.539595 -0.585292 111 104 88
2.7519 1.37937 8.40535 -0.42341 -0.60599 -0.673424 118 112 96
2.76659 1.37021 8.40913 -0.134106 -0.684971 -0.716121 113 106 90
-0.143853 1.88342 8.58573 0.176348 -0.861098 -0.476877 179 176 172
-0.117378 1.88329 8.6015 0.122768 -0.968776 -0.21541 159 156 152
-0.0977562 1.87782 8.60213 0.314675 -0.901456 -0.297249 152 148 144
-0.0960969 1.8832 8.5654 0.279488 -0.941375 -0.188943 127 123 118
-0.0748959 1.88944 8.59147 0.346177 -0.900493 -0.263201 98 93 89
-0.059839 1.8877 8.6194 0.258338 -0.81754 -0.514674 83 76 72
-0.00893456 1.89732 8.64504 0.0616047 -0.963742 -0.259627 78 73 67
0.0511121 1.88221 8.63212 0.160276 -0.963706 -0.213501 82 76 69
0.0801363 1.87711 8.62966 -0.0628827 -0.969128 -0.238405 87 81 73
0.138849 1.859 8.64205 -0.201742 -0.943476 -0.26297 74 67 59
0.163769 1.85927 8.63368 -0.128363 -0.957242 -0.259248 84 78 69
0.191943 1.85193 8.63655 -0.0944418 -0.964388 -0.247057 81 77 66
0.186063 1.85758 8.64406 -0.0770104 -0.964905 -0.251053 83 78 68
0.212401 1.84919 8.65546 -0.144018 -0.953706 -0.264015 79 74 64
0.218977 1.85095 8.61401 -0.0985048 -0.964699 -0.244238 94 89 79
0.240776 1.84424 8.63651 -0.229398 -0.944436 -0.235406 85 79 69
0.24209 1.84433 8.63334 -0.270128 -0.926158 -0.263178 87 82 71
0.267044 1.84498 8.62247 -0.209744 -0.938509 -0.27424 100 94 84
0.289147 1.83489 8.63323 -0.238813 -0.885653 -0.39823 92 85 75
0.311485 1.83611 8.62081 -0.219974 -0.896694 -0.384124 103 97 85
0.335938 1.83092 8.64568 -0.247822 -0.91996 -0.303739 103 98 87
0.367847 1.82747 8.61837 -0.0835587 -0.96747 -0.23879 114 108 97
0.350814 1.82794 8.64278 -0.0554787 -0.969354 -0.239322 107 102 90
0.385036 1.81778 8.63109 -0.459516 -0.648737 -0.606619 111 105 94
0.423384 1.81181 8.62704 -0.724284 -0.612774 -0.316102 111 103 92
0.472663 1.80699 8.63916 -0.319902 -0.904846 -0.280921 107 102 90
0.498612 1.80091 8.60959 -0.24265 -0.932787 -0.266514 99 94 82
0.498654 1.80161 8.61861 -0.222444 -0.936288 -0.271814 98 93 81
0.521809 1.80067 8.64706 -0.0928182 -0.962805 -0.253755 101 95 83
0.523574 1.79933 8.59292 -0.218227 -0.937926 -0.269579 93 88 76
0.546176 1.80124 8.63019 -0.0902617 -0.963248 -0.252992 96 89 79
0.570587 1.79173 8.63151 -0.0640862 -0.966086 -0.25014 104 98 88
0.570502 1.79977 8.60786 -0.120973 -0.961434 -0.247002 93 86 75
0.594748 1.7921 8.61264 -0.0455144 -0.968236 -0.245862 98 91 80
0.642016 1.77664 8.60948 -0.0645674 -0.981818 -0.178505 104 100 85
0.685012 1.76286 8.57718 -0.120481 -0.976678 -0.177721 99 92 79
0.76102 1.74741 8.56905 -0.421736 -0.800248 -0.426311 102 94 81
0.784697 1.76546 8.62597 -0.0482513 -0.937077 -0.345773 101 94 81
0.805613 1.76031 8.63894 -0.0606102 -0.921208 -0.384321 105 98 84
0.784977 1.75067 8.55999 -0.107084 -0.963962 -0.243535 100 93 78
0.829348 1.74426 8.56569 -0.0898973 -0.963533 -0.252038 104 96 82
0.829348 1.74426 8.56569 -0.0898973 -0.963533 -0.252038 104 96 82
0.829348 1.74426 8.56569 -0.0898973 -0.963533 -0.252038 104 96 82
0.852998 1.74531 8.60194 -0.110322 -0.960872 -0.254075 107 99 86
0.873465 1.75368 8.61531 0.160988 -0.955507 -0.247164 105 97 84
0.873465 1.75368 8.61531 0.160988 -0.955507 -0.247164 105 97 84
0.875927 1.74019 8.61907 -0.23271 -0.904774 -0.356692 105 97 84
0.872077 1.74125 8.59474 -0.220677 -0.93258 -0.285651 105 97 84
0.872077 1.74125 8.59474 -0.220677 -0.93258 -0.285651 105 97 84
0.872077 1.74125 8.59474 -0.220677 -0.93258 -0.285651 105 97 84
0.89653 1.73394 8.5851 -0.15266 -0.954279 -0.256994 101 93 80
0.919927 1.7285 8.60264 -0.170981 -0.953196 -0.249363 104 96 83
0.919935 1.72877 8.60282 -0.192001 -0.948837 -0.250685 104 97 83
0.919935 1.72877 8.60282 -0.192001 -0.948837 -0.250685 104 97 83
0.919935 1.72877 8.60282 -0.192001 -0.948837 -0.250685 104 97 83
0.919935 1.72877 8.60282 -0.192001 -0.948837 -0.250685 104 97 83
0.919951 1.72916 8.60405 -0.18558 -0.950244 -0.250192 104 96 83
0.919935 1.72877 8.60282 -0.192001 -0.948837 -0.250685 104 97 83
0.94151 1.70497 8.50813 -0.141346 -0.95629 -0.255991 95 87 74
0.942248 1.71912 8.56034 -0.174432 -0.952818 -0.248416 97 90 76
0.968412 1.71135 8.54434 -0.0201223 -0.97218 -0.233367 102 95 81
0.992878 1.71077 8.56631 -0.0335361 -0.969158 -0.244147 98 91 78
1.01752 1.70822 8.58506 -0.0312102 -0.968959 -0.245242 104 97 83
1.01685 1.70666 8.57945 -0.118607 -0.961832 -0.246602 104 97 83
1.01622 1.70771 8.53396 -0.0093399 -0.969915 -0.243266 109 101 87
1.0161 1.70644 8.52894 -0.0680891 -0.965394 -0.25175 109 101 87
1.0399 1.70052 8.53523 -0.0216818 -0.967787 -0.250836 107 99 85
1.04006 1.70028 8.53631 -0.057141 -0.968038 -0.244208 107 99 85
1.03967 1.70166 8.54243 -0.0954603 -0.964872 -0.244762 107 99 85
1.03997 1.70355 8.55309 -0.269089 -0.929284 -0.253025 107 99 85
1.06393 1.69758 8.55195 0.0130106 -0.971318 -0.237429 110 100 86
1.06427 1.69776 8.55685 -0.0638753 -0.969966 -0.234704 110 101 87
1.06731 1.6919 8.53842 0.0373829 -0.908212 -0.416838 110 101 87
1.08219 1.69181 8.54004 -0.453249 -0.855038 -0.251943 111 102 88
1.10299 1.68563 8.51979 -0.180295 -0.777536 -0.602437 112 102 90
1.12341 1.68431 8.53907 0.0219853 -0.896676 -0.442142 109 98 86
1.14329 1.67221 8.50382 -0.201056 -0.947753 -0.247669 105 96 82
1.16298 1.67328 8.54898 -0.0881508 -0.971346 -0.220716 111 101 85
1.16298 1.67328 8.54898 -0.0881508 -0.971346 -0.220716 111 101 85
1.1911 1.66507 8.5318 -0.0618598 -0.969336 -0.237827 111 102 87
1.19617 1.66781 8.53531 -0.0230016 -0.968289 -0.248772 110 101 86
1.20313 1.66818 8.5592 0.149467 -0.961704 -0.229748 113 103 87
1.21768 1.67799 8.55753 -0.0861423 -0.965259 -0.246687 109 100 85
1.21768 1.67799 8.55753 -0.0861423 -0.965259 -0.246687 109 100 85
1.21768 1.67799 8.55753 -0.0861423 -0.965259 -0.246687 109 100 85
1.26606 1.64571 8.47935 -0.105749 0.595546 -0.79633 111 102 86
1.30328 1.66593 8.58816 -0.097432 -0.528762 -0.843159 111 103 87
1.33354 1.64456 8.48886 -0.53137 -0.799796 -0.279236 109 99 80
1.3154 1.61962 8.423 -0.723694 -0.524208 -0.448858 105 96 79
1.33091 1.62637 8.44458 -0.529595 -0.801084 -0.278916 110 100 82
1.31961 1.59776 8.36791 -0.874766 -0.38495 -0.294276 112 101 81
1.33023 1.6233 8.43345 -0.596999 -0.753522 -0.275311 110 100 82
1.67574 1.5691 8.45356 -0.246169 -0.948493 -0.199403 97 89 72
1.70513 1.56954 8.4893 -0.257766 -0.943378 -0.208792 104 97 80
1.69852 1.56757 8.44325 -0.222382 -0.959571 -0.172541 89 82 65
1.72564 1.56511 8.46971 -0.252329 -0.944906 -0.208525 104 97 80
1.72024 1.56362 8.42879 -0.159409 -0.962325 -0.220269 96 88 73
1.74295 1.55524 8.44341 0.166034 -0.941437 -0.293479 110 102 86
1.76671 1.55197 8.46158 -0.149807 -0.970269 -0.190095 107 99 83
1.76603 1.55382 8.45615 -0.117125 -0.973306 -0.197377 106 98 83
1.92461 1.53122 8.4494 -0.248519 -0.954029 -0.167534 96 88 72
2.11872 1.47924 8.36708 -0.463477 -0.872932 -0.152243 84 76 60
2.76015 1.37864 8.38786 -0.354757 -0.623743 -0.696486 119 113 97
2.74247 1.3806 8.35333 0.138054 -0.917906 -0.372009 118 112 96
2.76822 1.3782 8.37 -0.346127 -0.625986 -0.698812 118 112 95
2.73318 1.36887 8.306 -0.375336 -0.639271 -0.67116 117 112 95
-0.0419482 1.90068 8.62042 0.347675 -0.919236 -0.184736 77 73 67
0.0216517 1.89407 8.6047 0.0508308 -0.972935 -0.225419 85 81 74
0.0520284 1.88675 8.59493 0.154537 -0.964934 -0.212182 85 80 72
0.0802105 1.88364 8.59879 -0.108845 -0.960772 -0.255088 88 82 73
0.106123 1.88482 8.58367 -0.0838006 -0.964934 -0.248758 86 81 69
0.107166 1.87442 8.60448 -0.185757 -0.947076 -0.261802 92 87 76
0.16376 1.86723 8.60449 -0.140981 -0.95721 -0.25273 97 92 82
0.189172 1.86904 8.58741 -0.226482 -0.936539 -0.267581 101 97 85
0.191297 1.86186 8.61381 -0.208986 -0.941343 -0.264949 95 91 80
0.21692 1.85762 8.58455 -0.0795076 -0.967732 -0.23911 102 98 87
0.242301 1.8519 8.60209 -0.125887 -0.958014 -0.257606 104 99 88
0.243216 1.85604 8.56238 -0.119817 -0.959717 -0.254138 111 104 94
0.269409 1.84686 8.56955 -0.0497711 -0.968618 -0.243521 117 111 100
0.289467 1.84203 8.59996 -0.115399 -0.977629 -0.175854 101 95 83
0.311814 1.84268 8.58601 -0.318959 -0.926544 -0.199451 102 97 84
0.334058 1.83435 8.60029 -0.0741273 -0.967914 -0.240099 112 107 95
0.3875 1.84461 8.61714 0.002415 -0.668429 -0.743772 113 107 95
0.387465 1.84481 8.61775 0.00327066 -0.662071 -0.749434 113 107 95
0.387465 1.84481 8.61775 0.00327066 -0.662071 -0.749434 113 107 95
0.406697 1.82594 8.58928 -0.223094 -0.936114 -0.271882 109 104 92
0.428067 1.81214 8.51813 -0.0266387 -0.975138 -0.21999 109 103 88
0.453494 1.8136 8.55384 -0.122066 -0.962036 -0.244102 93 87 75
0.478494 1.80675 8.52283 -0.241388 -0.93156 -0.271898 94 89 76
0.477576 1.80575 8.5722 -0.283398 -0.91989 -0.271088 91 85 74
0.498825 1.80792 8.57762 -0.270131 -0.924971 -0.267316 91 85 74
0.525287 1.79764 8.53305 -0.279994 -0.918799 -0.278229 100 94 82
0.546448 1.78652 8.49911 -0.557922 -0.796895 -0.231691 111 104 92
0.546448 1.78652 8.49911 -0.557922 -0.796895 -0.231691 111 104 92
0.547349 1.79869 8.58343 -0.29185 -0.917592 -0.269906 99 92 81
0.547277 1.79913 8.58487 -0.288953 -0.918656 -0.269403 99 92 81
0.574315 1.78829 8.53275 -0.561317 -0.79154 -0.241635 96 90 76
0.594176 1.79082 8.56337 -0.0389512 -0.978091 -0.2045 91 85 71
0.594176 1.79082 8.56337 -0.0389512 -0.978091 -0.2045 91 85 71
0.594176 1.79082 8.56337 -0.0389512 -0.978091 -0.2045 91 85 71
0.617927 1.78434 8.5709 -0.081136 -0.973864 -0.212144 94 89 74
0.616963 1.77891 8.51141 -0.133328 -0.967908 -0.213022 98 93 78
0.641662 1.77586 8.53018 -0.368034 -0.91012 -0.190349 100 94 79
0.675225 1.77523 8.51777 0.00662196 -0.972541 -0.232638 110 103 90
0.674209 1.75683 8.52014 0.0213394 -0.977727 -0.208791 101 94 80
0.760483 1.74977 8.53597 0.225824 -0.867395 -0.44343 105 98 85
0.784792 1.75359 8.52025 -0.315171 -0.911734 -0.263455 107 100 85
0.81397 1.74266 8.50937 -0.111268 -0.970895 -0.212092 105 99 82
0.817779 1.74231 8.50214 -0.720828 -0.587404 -0.367917 106 100 84
0.806625 1.74136 8.5242 -0.286242 -0.91898 -0.271185 104 97 82
0.8322 1.73723 8.52499 -0.281918 -0.904486 -0.320043 104 97 83
0.852819 1.73169 8.50683 -0.415346 -0.862049 -0.290447 104 96 83
0.852819 1.73169 8.50683 -0.415346 -0.862049 -0.290447 104 96 83
0.852819 1.73169 8.50683 -0.415346 -0.862049 -0.290447 104 96 83
0.873549 1.72387 8.48085 -0.099607 -0.962788 -0.251232 104 96 83
0.871616 1.72543 8.49125 -0.25095 -0.931128 -0.264622 104 96 83
0.871616 1.72543 8.49125 -0.25095 -0.931128 -0.264622 104 96 83
0.871616 1.72543 8.49125 -0.25095 -0.931128 -0.264622 104 96 83
0.871616 1.72543 8.49125 -0.25095 -0.931128 -0.264622 104 96 83
0.896042 1.7266 8.51074 -0.202645 -0.944334 -0.259169 101 92 79
0.896042 1.7266 8.51074 -0.202645 -0.944334 -0.259169 101 92 79
0.896003 1.72544 8.50688 -0.208933 -0.942808 -0.259732 101 92 79
0.918826 1.71234 8.49843 -0.147319 -0.955239 -0.256546 100 92 78
0.918907 1.72094 8.47853 -0.44252 -0.84802 -0.291613 99 91 77
0.918826 1.71234 8.49843 -0.147319 -0.955239 -0.256546 100 92 78
0.918801 1.71182 8.49669 -0.131763 -0.957978 -0.254786 100 92 78
0.941462 1.71105 8.47985 -0.251674 -0.931414 -0.262923 94 85 72
0.935548 1.71427 8.45611 -0.294917 -0.61512 -0.731198 98 90 76
0.967651 1.70806 8.48402 -0.0141215 -0.970405 -0.241069 96 88 74
0.97026 1.7079 8.4544 -0.107348 -0.961936 -0.251307 97 89 75
0.99184 1.70832 8.51044 -0.0135056 -0.970174 -0.242034 101 94 80
0.991231 1.70824 8.46111 -0.0642779 -0.968151 -0.241976 100 92 77
1.01518 1.70454 8.47363 -0.066022 -0.963262 -0.260321 105 97 82
1.03891 1.69895 8.48026 0.0148019 -0.942738 -0.333205 106 97 84
1.06222 1.69165 8.48173 0.286188 -0.700814 -0.653419 108 98 84
1.06235 1.69007 8.48105 0.142895 -0.724516 -0.674283 108 98 84
1.10084 1.68457 8.47879 -0.0781466 -0.909226 -0.408902 107 97 83
1.09873 1.7012 8.4895 -0.476829 -0.747524 -0.462429 109 99 84
1.12022 1.68428 8.45527 0.0292191 -0.967353 -0.251744 102 92 77
1.12058 1.67902 8.49047 -0.170756 -0.95143 -0.256172 106 96 82
1.14434 1.68395 8.47698 0.0280241 -0.968919 -0.245786 100 91 75
1.16749 1.67775 8.47953 -0.223718 -0.946855 -0.231121 108 100 82
1.1896 1.67512 8.45467 -0.168243 -0.958503 -0.230143 111 102 85
1.19451 1.66692 8.48244 -0.0968574 -0.963488 -0.249617 109 101 84
1.18994 1.66646 8.48604 0.000619769 -0.968694 -0.248257 109 100 85
1.21337 1.66872 8.47208 -0.198421 -0.880603 -0.430311 105 96 80
1.23332 1.66894 8.45644 -0.136223 -0.931115 -0.338332 98 90 72
1.23405 1.66839 8.50768 -0.302186 -0.921718 -0.243145 103 94 77
1.25519 1.66288 8.48666 -0.278108 -0.946192 -0.165458 104 95 77
1.29404 1.64806 8.46328 0.181157 -0.947175 -0.264653 110 99 82
1.30256 1.63642 8.42037 -0.604166 -0.673421 -0.426014 106 95 76
1.44161 1.57296 8.28375 0.70365 -0.100209 -0.703445 87 83 71
1.49445 1.59959 8.37382 -0.259327 -0.915697 -0.306999 84 80 68
1.51185 1.59254 8.37929 -0.309178 -0.882262 -0.354998 65 62 50
1.57042 1.58053 8.35568 -0.648489 -0.507836 -0.567067 90 87 75
1.71951 1.56844 8.40149 -0.119348 -0.967771 -0.221757 88 80 64
1.74284 1.56366 8.41679 0.193165 -0.932666 -0.304667 91 84 70
1.76377 1.56931 8.39596 0.30813 -0.890629 -0.334419 86 78 62
1.76197 1.5586 8.41548 0.020792 -0.967484 -0.252075 89 81 66
1.92149 1.53204 8.41434 -0.0701873 -0.928531 -0.364559 104 96 80
2.15363 1.48473 8.36471 -0.165862 -0.960735 -0.222439 86 78 62
2.15364 1.4838 8.36118 -0.204688 -0.955305 -0.213298 86 78 62
2.14874 1.48648 8.32831 -0.2856 -0.915385 -0.28373 85 78 61
2.68186 1.38152 8.27687 -0.445234 -0.867353 -0.222408 106 101 85
2.69286 1.37583 8.25135 -0.177479 -0.925573 -0.334389 104 98 82
2.71964 1.37341 8.27267 -0.26498 -0.880266 -0.393595 110 104 88
2.74 1.36691 8.28438 -0.808509 -0.398069 -0.433422 119 113 96
2.73007 1.36819 8.25004 -0.234066 -0.943816 -0.233292 110 104 88
2.75403 1.36188 8.26228 -0.220454 -0.844551 -0.48799 119 113 96
2.76919 1.36217 8.24833 -0.429998 -0.847696 -0.310667 117 110 94
-0.0119674 1.90585 8.58284 0.350492 -0.918438 -0.183378 76 73 65
0.0279612 1.89069 8.53631 0.0893435 -0.97195 -0.217555 83 78 71
0.0508984 1.89569 8.57225 0.0702567 -0.972783 -0.22081 83 78 70
0.0804143 1.89086 8.56811 -0.142154 -0.940672 -0.308104 87 82 72
0.0770739 1.89683 8.58955 0.0629888 -0.922684 -0.380376 87 82 72
0.113084 1.87013 8.48684 -0.0426176 -0.937179 -0.346236 90 85 73
0.113329 1.87755 8.51453 -0.215041 -0.944402 -0.248721 86 82 70
0.113084 1.87013 8.48684 -0.0426176 -0.937179 -0.346236 90 85 73
0.113329 1.87755 8.51453 -0.215041 -0.944402 -0.248721 86 82 70
0.113084 1.87013 8.48684 -0.0426176 -0.937179 -0.346236 90 85 73
0.113329 1.87755 8.51453 -0.215041 -0.944402 -0.248721 86 82 70
0.136179 1.87536 8.53447 -0.0458471 -0.972 -0.230465 90 86 73
0.137422 1.88631 8.56365 -0.111943 -0.96378 -0.242068 91 87 74
0.163679 1.87913 8.57535 -0.107176 -0.964395 -0.241775 104 99 87
0.193597 1.8687 8.52392 -0.199866 -0.94516 -0.258314 97 93 81
0.216483 1.86654 8.56003 -0.243349 -0.932036 -0.268495 101 96 84
0.216753 1.8665 8.55972 -0.213354 -0.94121 -0.261924 101 96 84
0.244633 1.85796 8.51707 -0.1168 -0.963346 -0.241501 99 93 81
0.2697 1.85292 8.53699 -0.0605297 -0.970427 -0.233681 116 110 99
0.296454 1.84802 8.50355 -0.58669 -0.720435 -0.369822 112 105 93
0.351203 1.85894 8.60439 -0.801715 -0.272283 -0.532086 112 108 94
0.408853 1.82748 8.53672 0.0129381 -0.678473 -0.734511 112 107 93
0.405966 1.81572 8.45904 -0.616056 -0.565632 -0.548211 113 108 94
0.429845 1.8232 8.49081 0.155209 -0.829972 -0.535777 110 105 90
0.454155 1.81705 8.51202 -0.211834 -0.943312 -0.255518 103 98 84
0.478852 1.81259 8.48734 -0.289077 -0.919052 -0.267913 106 100 86
0.501642 1.80666 8.51533 -0.305618 -0.90732 -0.288736 95 90 77
0.502336 1.7994 8.45104 -0.099753 -0.96621 -0.237671 96 90 77
0.526055 1.80158 8.49136 -0.133261 -0.958389 -0.252451 100 94 82
0.549413 1.7943 8.51457 -0.183105 -0.947898 -0.260695 110 104 92
0.55053 1.79351 8.51001 -0.219816 -0.94136 -0.255972 108 102 90
0.550477 1.79385 8.51116 -0.223504 -0.940439 -0.256167 110 103 92
0.576199 1.78941 8.47203 0.0894385 -0.972348 -0.215733 97 91 77
0.600595 1.78529 8.4964 0.160301 -0.959584 -0.231306 102 96 84
0.622903 1.78585 8.46187 0.0665861 -0.970013 -0.233754 113 107 94
0.646917 1.79222 8.50378 0.359162 -0.904174 -0.23124 114 108 94
0.650461 1.79186 8.50619 0.347068 -0.893466 -0.285064 114 108 94
0.675012 1.7948 8.51961 0.38066 -0.876348 -0.295148 114 107 92
0.675959 1.76951 8.46956 -0.161454 -0.972093 -0.170203 114 107 91
0.697403 1.7625 8.47253 -3.317e-05 -0.956141 -0.292907 111 105 90
0.697386 1.76232 8.47218 -0.00441211 -0.955543 -0.294819 111 105 90
0.738734 1.75207 8.46479 -0.0735786 -0.9685 -0.237896 100 93 79
0.719083 1.75771 8.48158 -0.0451984 -0.976867 -0.209014 105 98 82
0.738664 1.75351 8.42371 -0.266149 -0.929512 -0.255287 107 100 85
0.738664 1.75351 8.42371 -0.266149 -0.929512 -0.255287 107 100 85
0.738664 1.75351 8.42371 -0.266149 -0.929512 -0.255287 107 100 85
0.762665 1.75813 8.49039 0.260537 -0.936246 -0.235721 109 102 87
0.761912 1.75671 8.46094 0.382551 -0.890931 -0.244739 106 99 84
0.79422 1.74506 8.47142 -0.859076 -0.307965 -0.408836 110 104 86
0.812332 1.75786 8.48568 -0.727322 -0.574423 -0.375554 107 101 84
0.832822 1.73778 8.47373 -0.597674 -0.729106 -0.333452 98 91 76
0.82722 1.75541 8.46436 -0.698122 -0.609141 -0.376263 104 98 81
0.853277 1.73333 8.45931 -0.465555 -0.833515 -0.29751 99 92 78
0.852944 1.74505 8.44576 -0.483529 -0.822399 -0.299765 107 99 85
0.8476 1.73648 8.4563 -0.614351 -0.713666 -0.336531 102 94 80
0.873093 1.727 8.44059 -0.620445 -0.708549 -0.336165 101 93 79
0.898881 1.73409 8.4683 -0.613386 -0.401509 -0.680109 97 89 75
0.88803 1.734 8.45186 -0.589406 -0.689797 -0.420452 102 94 80
0.902226 1.73367 8.43615 -0.493374 -0.75304 -0.435332 99 91 78
0.918893 1.72903 8.45319 -0.280275 -0.479048 -0.831841 96 88 74
0.93551 1.72667 8.43979 -0.382772 -0.677929 -0.627612 99 91 77
0.950976 1.71665 8.44646 -0.221574 -0.898597 -0.37872 94 86 72
0.969006 1.71463 8.43359 -0.376278 -0.877325 -0.297852 101 93 79
0.988795 1.71041 8.41812 -0.289118 -0.747326 -0.59826 97 89 75
0.99209 1.70693 8.45285 -0.0214707 -0.968615 -0.247638 101 93 78
1.01468 1.70658 8.43194 -0.229407 -0.939606 -0.253994 101 93 79
1.01477 1.7046 8.42259 -0.126396 -0.930943 -0.342593 101 93 79
1.03841 1.70293 8.44251 0.0180014 -0.970551 -0.240222 102 93 79
1.03776 1.70412 8.45243 0.00908598 -0.970627 -0.240418 104 96 81
1.03631 1.7034 8.41281 -0.121981 -0.932268 -0.340583 98 89 75
1.06167 1.704 8.42069 0.011779 -0.970929 -0.239076 101 92 77
1.06031 1.70249 8.46563 0.0091591 -0.969762 -0.243881 104 94 80
1.08386 1.70509 8.44928 0.219556 -0.608369 -0.762681 108 98 82
1.07548 1.69162 8.44689 -0.0797322 -0.720273 -0.689094 107 97 83
1.09194 1.68279 8.38741 0.284766 -0.922532 -0.260466 109 100 85
1.09711 1.68861 8.43709 0.175793 -0.554878 -0.813147 108 99 83
1.11977 1.68849 8.41985 0.0211283 -0.970065 -0.241926 106 97 80
1.14335 1.6854 8.43215 -0.0233149 -0.970073 -0.241692 105 97 80
1.1668 1.68198 8.44431 -0.136553 -0.960693 -0.241705 115 107 90
1.16457 1.68264 8.40322 0.0121381 -0.972315 -0.233358 112 104 86
1.18992 1.68315 8.43386 -0.264173 -0.937114 -0.228098 114 105 90
1.19226 1.68148 8.42802 -0.194596 -0.958473 -0.208475 114 106 89
1.2327 1.65676 8.40242 -0.117254 -0.963078 -0.242349 91 83 65
1.23262 1.67451 8.42451 -0.153771 -0.96155 -0.227545 94 86 68
1.30464 1.62848 8.35143 -0.203673 -0.957535 -0.204068 106 95 77
1.49577 1.61006 8.35991 -0.232986 -0.88413 -0.405009 81 77 65
1.49448 1.60005 8.36702 -0.505262 -0.703942 -0.499175 83 79 67
1.50518 1.5981 8.32136 -0.171375 -0.90147 -0.397469 78 76 64
1.50818 1.59616 8.34973 -0.419317 -0.790057 -0.447195 74 72 60
1.52911 1.59454 8.3417 -0.675874 -0.708983 -0.201336 44 43 30
1.52396 1.59308 8.33282 -0.265013 -0.893075 -0.363574 47 47 34
1.5892 1.5871 8.36167 -0.628759 -0.637205 -0.445682 83 78 66
1.58306 1.58985 8.3233 -0.278842 -0.90291 -0.327109 88 83 71
1.72666 1.56632 8.3211 -0.780448 -0.591234 -0.203329 87 79 64
1.7684 1.56083 8.3301 0.186673 -0.938782 -0.289554 89 81 66
1.7684 1.56083 8.3301 0.186673 -0.938782 -0.289554 89 81 66
1.78461 1.55347 8.32431 0.207407 -0.920786 -0.330356 89 82 67
2.71102 1.37604 8.24036 -0.0991049 -0.909423 -0.403892 102 97 80
2.7512 1.36648 8.2372 -0.397398 -0.876023 -0.273236 108 102 86
2.75415 1.37503 8.22059 -0.403067 -0.876886 -0.26193 105 99 82
-0.031706 1.89468 8.4712 0.303281 -0.936681 -0.17507 80 77 69
0.00195527 1.88703 8.45999 0.210999 -0.957159 -0.198307 82 78 70
0.0319499 1.8903 8.47708 0.247123 -0.948969 -0.195928 87 82 74
0.0319686 1.89026 8.47696 0.239324 -0.950733 -0.197053 87 82 74
0.0319686 1.89026 8.47696 0.239324 -0.950733 -0.197053 87 82 74
0.0637175 1.88545 8.48305 0.00925647 -0.973418 -0.228847 97 91 82
0.0896074 1.87664 8.47132 0.0941716 -0.971863 -0.215901 98 92 82
0.0896074 1.87664 8.47132 0.0941716 -0.971863 -0.215901 98 92 82
0.0896074 1.87664 8.47132 0.0941716 -0.971863 -0.215901 98 92 82
0.144568 1.85862 8.42498 0.181881 -0.935315 -0.303489 94 90 77
0.144568 1.85862 8.42498 0.181881 -0.935315 -0.303489 94 90 77
0.144568 1.85862 8.42498 0.181881 -0.935315 -0.303489 94 90 77
0.144568 1.85862 8.42498 0.181881 -0.935315 -0.303489 94 90 77
0.144568 1.85862 8.42498 0.181881 -0.935315 -0.303489 94 90 77
0.144568 1.85862 8.42498 0.181881 -0.935315 -0.303489 94 90 77
0.169577 1.86608 8.48665 -0.0968382 -0.96648 -0.23778 93 89 76
0.170403 1.85879 8.44189 -0.00362775 -0.977724 -0.209863 95 91 77
0.198771 1.85349 8.43197 -0.119572 -0.962872 -0.242032 96 92 79
0.220677 1.85886 8.48473 -0.178688 -0.954762 -0.237696 93 89 75
0.221926 1.8603 8.44958 -0.0724346 -0.970134 -0.231501 93 89 75
0.247478 1.85743 8.46387 0.0178171 -0.975367 -0.219867 97 91 78
0.27198 1.8526 8.48326 -0.130438 -0.961073 -0.243566 100 94 82
0.297468 1.85176 8.46448 -0.268751 -0.925174 -0.268002 106 99 87
0.321514 1.84168 8.47784 -0.263437 -0.897012 -0.354921 113 107 94
0.362719 1.83535 8.46601 -0.468262 -0.814975 -0.341388 114 109 95
0.387049 1.82491 8.42717 -0.636523 -0.662499 -0.394883 110 105 90
0.432727 1.81637 8.41678 -0.393165 -0.512457 -0.763419 111 105 91
0.451142 1.81484 8.43326 -0.321162 -0.749189 -0.579284 111 105 90
0.478322 1.79889 8.41492 -0.81359 -0.388352 -0.432729 107 100 84
0.478136 1.81056 8.44147 -0.249403 -0.931484 -0.264831 109 103 89
0.50305 1.80314 8.45178 -0.120354 -0.962672 -0.242442 96 90 77
0.503331 1.80774 8.41659 -0.110541 -0.939118 -0.325328 107 100 87
0.526779 1.80188 8.44238 0.070067 -0.972595 -0.221697 99 93 80
0.551519 1.79434 8.45341 -0.131656 -0.961575 -0.240917 101 94 82
0.551728 1.79903 8.4184 -0.0654288 -0.970625 -0.231528 109 102 89
0.551545 1.79405 8.45254 -0.124318 -0.962767 -0.240051 101 94 82
0.57661 1.79102 8.42768 -0.129652 -0.962236 -0.239359 107 100 87
0.600825 1.79126 8.46145 0.178943 -0.911869 -0.369425 107 100 88
0.601087 1.79668 8.42508 -0.141036 -0.957831 -0.250337 115 108 95
0.622891 1.79571 8.43889 0.26057 -0.938196 -0.227798 116 110 96
0.626849 1.78623 8.46233 0.007884 -0.970761 -0.23992 112 106 93
0.647473 1.80433 8.47353 0.389089 -0.891915 -0.230429 111 105 90
0.649688 1.80321 8.49205 0.446969 -0.861643 -0.240395 113 106 92
0.683381 1.77944 8.43492 -0.626598 -0.635669 -0.450888 114 107 92
0.700873 1.76421 8.3834 -0.703814 -0.379124 -0.600758 113 106 91
0.700295 1.76567 8.39197 -0.67029 -0.43667 -0.600025 113 105 91
0.715092 1.78119 8.46541 -0.807773 -0.423407 -0.410157 113 106 90
0.715092 1.78119 8.46541 -0.807773 -0.423407 -0.410157 113 106 90
0.700873 1.76421 8.3834 -0.703814 -0.379124 -0.600758 113 106 91
0.700295 1.76567 8.39197 -0.67029 -0.43667 -0.600025 113 105 91
0.715092 1.78119 8.46541 -0.807773 -0.423407 -0.410157 113 106 90
0.715092 1.78119 8.46541 -0.807773 -0.423407 -0.410157 113 106 90
0.715092 1.78119 8.46541 -0.807773 -0.423407 -0.410157 113 106 90
0.700873 1.76421 8.3834 -0.703814 -0.379124 -0.600758 112 104 89
0.700295 1.76567 8.39197 -0.67029 -0.43667 -0.600025 113 106 91
0.715092 1.78119 8.46541 -0.807773 -0.423407 -0.410157 113 106 90
0.738651 1.76009 8.3937 -0.834259 -0.291306 -0.468137 118 111 95
0.762189 1.74872 8.40147 -0.0655473 -0.969863 -0.234667 112 105 89
0.803149 1.74979 8.40294 -0.567438 -0.768407 -0.295914 115 108 91
0.821366 1.74927 8.40073 -0.633224 -0.628823 -0.451231 117 109 94
0.852899 1.74865 8.40492 -0.591626 -0.743175 -0.312522 113 105 90
0.868373 1.74322 8.42628 -0.492988 -0.739383 -0.458558 105 97 83
0.872459 1.74282 8.44135 -0.435797 -0.419078 -0.796526 102 94 80
0.884957 1.74059 8.41052 -0.459779 -0.775451 -0.432756 104 96 82
0.888651 1.74121 8.42721 -0.0524777 -0.507533 -0.860033 102 94 80
0.901882 1.7352 8.38656 -0.377876 -0.887935 -0.262261 106 97 83
0.924259 1.73079 8.40082 -0.378522 -0.845095 -0.377538 104 95 81
0.905887 1.73187 8.41088 -0.514334 -0.807492 -0.28882 100 91 76
0.907437 1.73255 8.37693 -0.303643 -0.918916 -0.25178 106 98 83
0.924134 1.72662 8.39176 -0.067827 -0.903003 -0.424246 104 95 81
0.935069 1.73189 8.40014 -0.381585 -0.875282 -0.297109 106 98 83
0.950656 1.72485 8.41635 -0.459177 -0.812613 -0.35891 102 94 80
0.955335 1.73216 8.39825 -0.287217 -0.929238 -0.232428 103 94 77
0.947249 1.73117 8.39063 -0.253296 -0.935679 -0.245655 102 94 79
1.01451 1.71174 8.4017 -0.15902 -0.956988 -0.242664 94 85 70
1.0146 1.71114 8.3951 -0.128724 -0.962524 -0.238698 93 83 68
1.03513 1.70691 8.41279 -0.0833454 -0.967582 -0.238409 98 89 74
1.03498 1.69912 8.38802 0.0139107 -0.971073 -0.238379 96 87 72
1.03662 1.71026 8.38426 -0.0579557 -0.969993 -0.236124 94 86 70
1.05098 1.68527 8.33227 0.00746614 -0.976174 -0.216859 95 87 71
1.05415 1.69509 8.33735 -0.0280006 -0.97724 -0.210282 99 92 74
1.05415 1.69509 8.33735 -0.0280006 -0.97724 -0.210282 99 92 74
1.05415 1.69509 8.33735 -0.0280006 -0.97724 -0.210282 99 92 74
1.0743 1.68282 8.34647 0.0246549 -0.980037 -0.197281 109 100 83
1.08709 1.6859 8.37426 0.237066 -0.551558 -0.79974 109 100 84
1.08709 1.6859 8.37426 0.237066 -0.551558 -0.79974 109 100 84
1.11878 1.6931 8.38492 -0.672143 -0.684165 -0.283095 110 102 85
1.1417 1.68784 8.39419 -0.0362494 -0.972535 -0.229918 104 96 79
1.13399 1.69203 8.37304 -0.625225 -0.732667 -0.268874 109 101 82
1.16283 1.68482 8.36469 0.121997 -0.970465 -0.208123 107 99 81
1.16611 1.68498 8.40663 0.045335 -0.968894 -0.243286 111 103 86
1.1427 1.6848 8.34631 0.0102164 -0.97627 -0.216316 109 101 83
1.17473 1.68557 8.40662 0.118912 -0.965453 -0.231863 112 104 86
1.18765 1.68431 8.37937 -0.419814 -0.466595 -0.778489 112 103 88
1.18721 1.68348 8.3825 -0.411482 -0.601822 -0.684465 112 103 87
1.32628 1.65343 8.34415 -0.666055 -0.689489 -0.284562 113 103 81
1.35203 1.65947 8.37864 -0.322925 -0.925033 -0.200083 117 107 86
1.46974 1.61285 8.29546 -0.246555 -0.944186 -0.218458 91 85 72
1.50353 1.60323 8.29629 -0.604032 -0.649199 -0.462263 87 84 72
1.49265 1.61316 8.33024 -0.196728 -0.879969 -0.43238 86 82 70
1.52042 1.59523 8.30148 -0.14147 -0.918578 -0.369054 52 50 38
1.53992 1.59539 8.28579 -0.105575 -0.937431 -0.33178 69 67 56
1.55828 1.58568 8.29148 -0.260109 -0.911609 -0.318295 89 85 74
1.55751 1.59244 8.26744 -0.213562 -0.916741 -0.337605 86 83 72
1.57948 1.58828 8.28468 -0.281724 -0.917241 -0.281602 89 85 72
1.59125 1.58404 8.26311 0.101491 -0.963265 -0.248637 80 76 62
1.59116 1.57428 8.28126 -0.258122 -0.910609 -0.322744 78 75 61
1.7208 1.57364 8.29528 -0.676125 -0.654721 -0.337929 80 71 56
2.67084 1.39231 8.2037 -0.159149 -0.953242 -0.256907 111 105 89
2.78086 1.37718 8.22127 -0.216266 -0.604156 -0.766958 105 99 81
0.010543 1.87108 8.36037 0.239914 -0.954371 -0.177814 84 81 72
0.0309271 1.89952 8.44882 0.239564 -0.95128 -0.194104 91 86 78
0.062174 1.89645 8.45995 0.0654108 -0.948056 -0.311306 105 100 91
0.126502 1.86419 8.39794 0.116581 -0.963769 -0.239914 97 92 80
0.173929 1.85835 8.38313 0.157543 -0.967042 -0.200024 98 93 79
0.23398 1.8424 8.38407 -0.384178 -0.872781 -0.301098 98 94 81
0.256297 1.84134 8.35456 -0.553947 -0.718767 -0.420139 100 96 83
0.256297 1.84134 8.35456 -0.553947 -0.718767 -0.420139 100 96 83
0.256297 1.84134 8.35456 -0.553947 -0.718767 -0.420139 100 96 83
0.273595 1.85449 8.43869 -0.329976 -0.900492 -0.283248 99 93 80
0.300179 1.83729 8.38283 -0.508061 -0.80169 -0.314908 103 97 83
0.322456 1.84637 8.43966 -0.423011 -0.848551 -0.317841 109 103 89
0.345134 1.83758 8.41515 -0.44235 -0.836818 -0.322587 110 104 91
0.364266 1.84087 8.42459 -0.55218 -0.752702 -0.35852 109 104 89
0.381417 1.83702 8.39418 -0.641558 -0.657465 -0.395149 108 102 87
0.420973 1.82489 8.38688 -0.699085 -0.573037 -0.427678 112 106 91
0.441994 1.81422 8.34631 -0.297812 -0.486853 -0.821147 111 105 91
0.453623 1.80473 8.36744 -0.464311 -0.492946 -0.735812 114 108 93
0.486376 1.80567 8.38807 -0.0381798 -0.795112 -0.60526 112 105 91
0.469773 1.8088 8.36893 -0.496684 -0.45383 -0.739826 114 107 92
0.50337 1.81588 8.39112 0.0230173 -0.782418 -0.622327 112 105 90
0.526732 1.80891 8.4149 0.0905065 -0.946373 -0.310139 111 104 91
0.526245 1.82192 8.40384 -0.764765 -0.474733 -0.435619 108 102 88
0.549913 1.81057 8.38994 0.0887219 -0.972134 -0.216988 109 101 89
0.551173 1.81195 8.4088 0.197883 -0.954955 -0.221141 109 101 89
0.552595 1.80392 8.41944 0.267592 -0.938863 -0.216634 109 102 89
0.579411 1.79681 8.35465 0.452046 -0.862449 -0.227674 111 104 91
0.576956 1.79658 8.39152 -0.0611558 -0.971332 -0.229726 109 102 89
0.601537 1.79448 8.41308 -0.0420485 -0.975226 -0.217178 114 107 93
0.626632 1.80251 8.41604 0.3813 -0.896662 -0.224961 114 107 93
0.659264 1.78078 8.38496 -0.487988 -0.814993 -0.312497 113 106 92
0.690699 1.77287 8.33613 -0.559869 -0.662493 -0.497645 114 107 91
0.728479 1.77153 8.35317 -0.273225 -0.903539 -0.3301 113 106 91
0.76222 1.75568 8.374 0.291218 -0.934141 -0.206333 113 106 89
0.794677 1.74208 8.31542 -0.674389 -0.664707 -0.321503 117 110 93
0.789474 1.74926 8.3221 -0.540952 -0.784935 -0.302075 113 106 90
0.810424 1.75145 8.32911 -0.625927 -0.706946 -0.329306 116 109 93
0.835396 1.72391 8.28863 -0.642291 -0.714676 -0.276949 111 103 88
0.824224 1.76602 8.38256 -0.598427 -0.710852 -0.369561 112 105 88
0.84718 1.74521 8.36395 -0.522813 -0.800462 -0.293131 112 105 89
0.84718 1.74521 8.36395 -0.522813 -0.800462 -0.293131 112 105 89
0.84718 1.74521 8.36395 -0.522813 -0.800462 -0.293131 112 105 89
0.871053 1.7184 8.26444 0.301164 -0.923604 -0.237184 107 99 84
0.884549 1.73623 8.34247 -0.337272 -0.90253 -0.267745 103 96 82
0.922988 1.72631 8.34295 -0.0251692 -0.972319 -0.232298 104 96 81
0.925846 1.72175 8.31495 -0.50626 -0.797299 -0.328657 105 98 84
0.944169 1.71844 8.29858 -0.426411 -0.813044 -0.396401 108 100 86
0.94664 1.73094 8.38073 -0.134638 -0.964749 -0.226124 101 93 78
0.965441 1.72532 8.36636 -0.323997 -0.912063 -0.25133 98 90 75
0.987061 1.72527 8.35684 -0.189562 -0.956088 -0.223522 99 91 76
1.01412 1.71435 8.3641 -0.188323 -0.952555 -0.239108 99 89 75
1.03514 1.71055 8.34497 -0.257804 -0.938438 -0.229937 107 100 84
1.09393 1.69468 8.33838 -0.36217 -0.90835 -0.209127 111 103 85
1.1118 1.70117 8.34746 -0.850146 -0.378307 -0.366246 112 104 86
1.12035 1.68435 8.32339 0.0134077 -0.969175 -0.246007 114 105 88
1.13951 1.68454 8.30149 0.0089559 -0.946375 -0.322947 112 103 86
1.16408 1.68236 8.3173 0.0658386 -0.973027 -0.221097 114 106 88
1.16038 1.68142 8.31437 0.00947881 -0.976538 -0.215135 114 106 88
1.18483 1.68097 8.32151 -0.0903837 -0.981074 -0.171245 114 107 88
1.1877 1.67704 8.29984 -0.0294284 -0.878557 -0.47673 111 103 87
1.1877 1.67704 8.29984 -0.0294284 -0.878557 -0.47673 111 103 87
1.29271 1.66317 8.3317 -0.417721 -0.879842 -0.226686 108 98 81
1.28762 1.66509 8.32943 -0.404891 -0.886069 -0.225709 108 98 81
1.3063 1.66092 8.31817 -0.454093 -0.844429 -0.284146 110 101 83
1.31851 1.65231 8.27537 -0.372627 -0.896399 -0.240036 116 107 89
1.31857 1.65305 8.27723 -0.253194 -0.942243 -0.21925 117 107 89
1.32276 1.65415 8.32252 -0.350467 -0.90981 -0.222304 114 105 86
1.31719 1.64459 8.29454 -0.171256 -0.971455 -0.164155 115 105 85
1.32297 1.64986 8.28392 -0.365772 -0.899212 -0.24006 117 107 90
1.34239 1.6491 8.30696 -0.30558 -0.940325 -0.149701 119 109 89
1.34165 1.64786 8.29734 -0.224625 -0.956364 -0.186844 119 109 89
1.38796 1.63552 8.26368 -0.622938 -0.757117 -0.196781 115 106 88
1.48754 1.61542 8.29273 -0.491182 -0.721826 -0.487553 88 84 71
1.50219 1.61712 8.28253 -0.426936 -0.784706 -0.449403 89 86 75
1.47987 1.61564 8.25356 -0.00991462 -0.943758 -0.330488 82 78 64
1.50106 1.60688 8.22571 -0.341322 -0.920909 -0.188215 88 83 71
1.50321 1.60545 8.25842 -0.239229 -0.835337 -0.494955 92 89 77
1.5161 1.60011 8.23297 -0.186715 -0.864263 -0.467104 73 70 58
1.53105 1.59622 8.21397 -0.192313 -0.871386 -0.451333 50 47 36
1.539 1.59918 8.2539 -0.123461 -0.920351 -0.371094 60 57 46
1.56023 1.58181 8.19552 -0.265535 -0.867873 -0.419866 90 87 75
1.54954 1.59013 8.22489 -0.384634 -0.797277 -0.465195 85 82 70
1.56742 1.58255 8.23652 -0.470846 -0.767968 -0.434199 89 86 73
1.58528 1.58468 8.22669 -0.391955 -0.812749 -0.431057 82 78 64
1.7167 1.57718 8.26745 -0.472547 -0.747553 -0.46676 77 70 54
1.71363 1.58221 8.24189 -0.488032 -0.65515 -0.576717 78 69 55
1.72541 1.56894 8.23625 -0.173704 -0.869384 -0.4626 84 77 61
1.75167 1.56025 8.22496 -0.114191 -0.835528 -0.53745 98 91 75
1.73568 1.56684 8.21817 -0.408238 -0.64445 -0.646549 92 84 69
0.0292523 1.90694 8.39116 0.0169879 -0.975334 -0.220079 92 87 79
0.0646079 1.90265 8.40982 0.0178773 -0.975119 -0.22096 108 102 93
0.12159 1.88457 8.39356 -0.707931 -0.232166 -0.667033 107 102 90
0.145006 1.87684 8.37903 -0.694573 -0.204199 -0.689834 105 101 88
0.176775 1.85879 8.31853 0.15347 -0.968102 -0.198056 107 103 90
0.214989 1.85188 8.31522 0.189781 -0.940491 -0.281887 111 106 93
0.278551 1.84197 8.35039 -0.58417 -0.53304 -0.612058 103 99 85
0.300049 1.84345 8.33534 -0.658223 -0.198826 -0.726093 99 94 81
0.317912 1.84915 8.36374 -0.544381 -0.619062 -0.566049 100 96 83
0.317912 1.84915 8.36374 -0.544381 -0.619062 -0.566049 100 96 83
0.317912 1.84915 8.36374 -0.544381 -0.619062 -0.566049 100 96 83
0.377297 1.84194 8.38828 -0.531662 -0.385922 -0.753923 107 102 87
0.366326 1.84983 8.36039 -0.305872 -0.828027 -0.469909 107 100 87
0.395822 1.83775 8.36513 -0.552897 -0.29168 -0.78053 110 104 90
0.412889 1.83627 8.36758 -0.499972 -0.803201 -0.323876 109 102 88
0.43714 1.82959 8.33852 -0.26396 -0.926388 -0.26857 108 101 86
0.458847 1.81674 8.34193 -0.306324 -0.890035 -0.337644 113 105 91
0.486876 1.81415 8.36052 -0.137193 -0.594367 -0.792405 112 105 91
0.480075 1.8146 8.32648 -0.140292 -0.941287 -0.307079 111 103 89
0.50467 1.81701 8.34216 -0.417607 -0.860988 -0.290351 108 101 87
0.54671 1.80779 8.325 -0.47612 -0.833458 -0.28046 112 104 92
0.646023 1.77224 8.279 -0.696546 -0.601284 -0.391511 113 105 92
0.662637 1.76015 8.2635 -0.361111 -0.71723 -0.595969 110 103 88
0.67967 1.75636 8.23798 -0.325757 -0.479903 -0.814602 109 102 87
0.679294 1.7581 8.24032 -0.361695 -0.470366 -0.804943 109 102 87
0.690233 1.75059 8.26412 -0.778987 -0.443098 -0.44367 112 104 90
0.690454 1.74837 8.26006 -0.784171 -0.425797 -0.451412 112 104 90
0.707086 1.77956 8.35634 -0.491117 -0.808189 -0.325015 114 107 90
0.707177 1.7814 8.34286 -0.273361 -0.907509 -0.318906 111 104 88
0.722062 1.77822 8.33012 -0.207665 -0.935473 -0.285946 110 102 87
0.744046 1.78261 8.33202 -0.22734 -0.940372 -0.253015 110 102 88
0.744324 1.76967 8.3407 -0.173869 -0.943036 -0.28364 114 107 91
0.767368 1.76916 8.33344 -0.573591 -0.757506 -0.311734 110 103 87
0.7677 1.76823 8.32532 -0.166341 -0.955883 -0.242113 110 103 86
0.788503 1.75475 8.28921 -0.584473 -0.7486 -0.313034 115 107 91
0.799749 1.74989 8.26867 -0.222635 -0.94174 -0.25211 118 110 95
0.812224 1.74337 8.26213 -0.349493 -0.853971 -0.38547 117 109 94
0.822131 1.73967 8.25484 -0.505472 -0.808274 -0.301978 116 108 93
0.833105 1.72812 8.25996 -0.56912 -0.584307 -0.578522 120 112 98
0.849619 1.72897 8.26047 -0.402714 -0.476919 -0.781261 114 106 92
0.854031 1.73554 8.25055 0.267821 -0.77031 -0.578701 111 104 88
0.839495 1.72744 8.24275 -0.535283 -0.637931 -0.553639 118 110 95
0.871691 1.73182 8.25822 0.0338981 -0.973382 -0.226666 111 103 88
0.896522 1.72759 8.27176 0.117589 -0.967975 -0.221806 111 104 88
0.923428 1.72022 8.24839 0.0866114 -0.979999 -0.179168 111 104 86
0.918521 1.73113 8.28307 -0.417307 -0.869702 -0.263578 112 104 89
0.940052 1.7169 8.23797 -0.167387 -0.908834 -0.382103 114 107 92
0.962962 1.71849 8.29246 -0.323447 -0.903051 -0.282632 106 99 85
1.0018 1.7241 8.32892 -0.0951337 -0.970822 -0.220123 106 96 82
1.00103 1.72672 8.28894 -0.0698961 -0.959675 -0.272282 107 98 84
1.02488 1.72583 8.31448 -0.195801 -0.813138 -0.54815 106 96 82
1.04143 1.71993 8.3276 0.0383126 -0.903034 -0.427858 110 102 86
1.09457 1.70945 8.30191 -0.201125 -0.958889 -0.200202 110 101 84
1.09457 1.70945 8.30191 -0.201125 -0.958889 -0.200202 110 101 83
1.11877 1.70661 8.28436 -0.0917911 -0.817516 -0.568544 112 102 86
1.13922 1.68969 8.27393 -0.012205 -0.974461 -0.224223 109 100 83
1.16286 1.69465 8.26736 -0.0291414 -0.984423 -0.173382 110 102 83
1.1606 1.68327 8.27778 0.194903 -0.955873 -0.219819 116 107 89
1.15852 1.68458 8.2793 0.158584 -0.964552 -0.210927 115 106 88
1.18692 1.68313 8.26938 -0.0126584 -0.881964 -0.471147 111 102 86
1.20633 1.68493 8.3018 0.362379 -0.595364 -0.717093 112 103 87
1.20455 1.68679 8.25695 0.0347128 -0.971429 -0.23478 117 108 91
1.20693 1.66823 8.21406 0.0199674 -0.976803 -0.213207 116 108 89
1.25077 1.67016 8.23905 -0.710033 -0.23653 -0.663254 112 102 85
1.26652 1.67027 8.24576 -0.595766 -0.701113 -0.391796 111 101 85
1.2518 1.6646 8.23962 -0.396239 -0.781213 -0.482391 111 101 85
1.28436 1.66155 8.2631 -0.673733 -0.680977 -0.286974 114 104 87
1.28326 1.65652 8.25314 -0.708828 -0.583574 -0.396237 113 103 87
1.29803 1.66009 8.25217 -0.417307 -0.875787 -0.242593 111 101 84
1.3039 1.66 8.26724 -0.407462 -0.885759 -0.222273 111 102 84
1.31813 1.65804 8.24861 -0.397377 -0.875483 -0.274994 114 105 88
1.3146 1.65691 8.24026 -0.393426 -0.841426 -0.370429 113 104 87
1.33496 1.64776 8.21482 -0.0289784 -0.973338 -0.227539 116 107 89
1.33091 1.65212 8.21953 -0.090946 -0.970703 -0.222405 116 106 89
1.33597 1.64409 8.24834 -0.231883 -0.947768 -0.219014 118 109 92
1.35827 1.63978 8.22855 -0.648393 -0.729817 -0.21669 117 108 90
1.51492 1.60567 8.2099 -0.315735 -0.777657 -0.543655 80 78 66
1.53482 1.6022 8.20094 -0.313809 -0.802982 -0.5067 50 48 36
1.53421 1.61077 8.20631 -0.204003 -0.863056 -0.462079 48 46 34
1.54301 1.59928 8.16949 -0.176451 -0.868798 -0.462661 65 63 51
1.54739 1.59665 8.20101 -0.272143 -0.847602 -0.455533 80 77 66
1.55855 1.58869 8.17271 -0.206136 -0.878895 -0.430175 90 88 75
1.5817 1.59856 8.1792 -0.14422 -0.923269 -0.356054 92 89 75
1.58292 1.59066 8.20152 -0.139285 -0.934667 -0.327106 86 83 69
1.6994 1.5746 8.18983 -0.0861825 -0.972759 -0.215202 85 77 61
1.74402 1.56052 8.18914 0.00775532 -0.971869 -0.235396 89 81 66
0.136951 1.90357 8.35946 -0.664787 -0.219204 -0.714149 106 102 89
0.169112 1.87578 8.28275 0.111654 -0.972306 -0.205314 103 99 86
0.177372 1.86887 8.28695 0.285964 -0.940282 -0.184645 104 100 87
0.214502 1.86416 8.2855 0.216607 -0.95749 -0.190509 107 102 89
0.208288 1.86376 8.26677 0.0716263 -0.976717 -0.202221 104 99 86
0.246777 1.85946 8.29 0.185948 -0.964833 -0.185797 96 91 79
0.283802 1.8544 8.29954 -0.295095 -0.913496 -0.280077 100 96 83
0.353048 1.82502 8.24528 -0.729226 -0.525032 -0.438829 106 100 87
0.351554 1.81477 8.23054 -0.779187 -0.125254 -0.614148 106 101 88
0.41941 1.8224 8.27363 -0.236315 -0.935439 -0.262885 108 101 87
0.417183 1.82672 8.28867 -0.178647 -0.953908 -0.241131 108 101 87
0.417183 1.82672 8.28867 -0.178647 -0.953908 -0.241131 108 101 87
0.440288 1.8211 8.26177 -0.342564 -0.874951 -0.342214 108 101 87
0.460416 1.82025 8.30032 -0.257102 -0.92912 -0.265773 109 102 88
0.482522 1.82023 8.29213 -0.15591 -0.956579 -0.246269 104 98 83
0.479021 1.82063 8.29595 -0.192202 -0.9483 -0.252557 105 98 84
0.502212 1.81518 8.31192 -0.138303 -0.959715 -0.24458 106 99 84
0.505304 1.82195 8.28396 -0.169491 -0.956845 -0.23605 105 99 84
0.502343 1.82143 8.28378 -0.174101 -0.955818 -0.236857 104 98 83
0.525812 1.81494 8.29645 -0.414232 -0.864432 -0.284902 110 103 90
0.546128 1.80575 8.26405 0.0948047 -0.972817 -0.211281 113 106 94
0.570899 1.79743 8.25217 0.373962 -0.902117 -0.215261 110 103 90
0.578936 1.80381 8.2789 0.271352 -0.939061 -0.211028 113 105 93
0.610269 1.79888 8.28244 0.0541935 -0.874131 -0.482656 111 104 91
0.628449 1.78238 8.25647 -0.625474 -0.660696 -0.415046 110 103 90
0.645563 1.78592 8.23972 -0.484879 -0.738633 -0.46831 109 102 88
0.662567 1.77328 8.2487 -0.40391 -0.737972 -0.540605 111 104 90
0.678953 1.77676 8.24573 -0.26912 -0.838974 -0.472967 108 101 87
0.69635 1.77472 8.27639 -0.201203 -0.946926 -0.250697 111 104 89
0.725362 1.77686 8.25239 -0.178934 -0.959214 -0.218839 108 100 87
0.722274 1.78264 8.29491 -0.150461 -0.958214 -0.243284 108 100 86
0.74755 1.77184 8.27785 -0.161116 -0.962374 -0.218811 111 103 88
0.770324 1.75606 8.21785 -0.157685 -0.959847 -0.23201 117 109 93
0.767701 1.77528 8.29902 -0.477992 -0.826478 -0.297416 113 106 89
0.790049 1.74883 8.21609 -0.343963 -0.899831 -0.268318 116 108 92
0.800073 1.74963 8.24266 -0.449524 -0.84965 -0.275721 121 112 97
0.814738 1.74813 8.22002 -0.230202 -0.94009 -0.251472 120 112 96
0.837782 1.74022 8.22211 -0.270765 -0.931232 -0.243912 116 107 92
0.871512 1.74262 8.2353 0.137698 -0.964556 -0.225103 110 102 87
0.890999 1.73333 8.21658 -0.138271 -0.958427 -0.249598 106 97 83
0.912059 1.72607 8.22157 -0.0210333 -0.953975 -0.299146 105 97 83
0.928499 1.72227 8.20998 -0.0779828 -0.424583 -0.902024 96 88 74
0.947419 1.73351 8.24208 -0.0673432 -0.974289 -0.215002 100 92 77
0.963981 1.72358 8.20312 -0.184689 -0.379907 -0.9064 97 88 74
0.957839 1.714 8.22878 -0.089615 -0.924635 -0.370162 110 103 88
0.998645 1.72781 8.23814 -0.151159 -0.961404 -0.2299 103 94 80
1.0244 1.73042 8.2805 0.040694 -0.974502 -0.220659 106 96 81
1.02336 1.72249 8.25377 -0.176418 -0.953926 -0.242697 106 96 82
1.02336 1.72249 8.25377 -0.176418 -0.953926 -0.242697 106 96 82
1.02336 1.72249 8.25377 -0.176418 -0.953926 -0.242697 106 96 82
1.04009 1.71926 8.27512 -0.19072 -0.953472 -0.23349 101 92 76
1.04156 1.70377 8.19788 -0.831766 -0.390828 -0.394231 105 96 83
1.0447 1.70818 8.19627 -0.108114 -0.967568 -0.228304 106 96 80
1.04655 1.71714 8.27153 -0.112524 -0.969534 -0.217584 102 91 76
1.04009 1.71926 8.27512 -0.19072 -0.953472 -0.23349 102 92 78
1.0447 1.70818 8.19627 -0.108114 -0.967568 -0.228304 106 96 80
1.0447 1.70818 8.19627 -0.108114 -0.967568 -0.228304 106 96 80
1.04009 1.71926 8.27512 -0.19072 -0.953472 -0.23349 102 92 78
1.0447 1.70818 8.19627 -0.108114 -0.967568 -0.228304 106 96 80
1.0447 1.70818 8.19627 -0.108114 -0.967568 -0.228304 106 96 80
1.0447 1.70818 8.19627 -0.108114 -0.967568 -0.228304 106 96 80
1.06892 1.70848 8.22781 -0.174483 -0.960537 -0.216619 109 99 81
1.13712 1.69979 8.23734 -0.141647 -0.977451 -0.156605 115 106 88
1.15637 1.67478 8.19081 -0.198108 -0.966335 -0.164167 109 101 82
1.16429 1.69588 8.23073 -0.117791 -0.980253 -0.158836 110 102 83
1.1865 1.69083 8.24468 -0.141385 -0.965812 -0.217297 118 109 91
1.19162 1.68265 8.20105 0.0721908 -0.970814 -0.228711 119 111 93
1.22497 1.67489 8.19055 -0.746121 -0.38446 -0.543593 114 105 88
1.26597 1.6671 8.22941 0.0680013 -0.969909 -0.233778 112 102 85
1.29764 1.66518 8.22405 -0.429474 -0.801341 -0.416419 112 102 86
1.3131 1.66114 8.20487 -0.309477 -0.914707 -0.259875 113 103 86
1.33221 1.65742 8.18913 -0.332858 -0.864291 -0.377102 113 104 87
1.33154 1.64918 8.2062 -0.200554 -0.95299 -0.22713 116 106 89
1.3569 1.6481 8.19541 -0.033764 -0.973486 -0.226239 118 108 91
1.35016 1.64335 8.18362 -0.0961436 -0.972432 -0.212446 118 108 91
1.37898 1.64915 8.17886 -0.0411645 -0.973584 -0.22459 111 101 84
1.37269 1.64455 8.17171 -0.0754509 -0.846663 -0.526752 111 102 84
1.51443 1.6144 8.19052 -0.2372 -0.853659 -0.463684 85 83 71
1.52732 1.60925 8.16651 -0.142394 -0.892332 -0.428332 53 52 40
1.5369 1.59778 8.13706 -0.0472704 -0.980825 -0.18907 56 53 40
1.53849 1.6016 8.13761 -0.152396 -0.855315 -0.495189 56 54 41
1.56067 1.60101 8.16076 0.0226213 -0.925395 -0.378329 87 85 72
1.58122 1.59804 8.1735 -0.206533 -0.900944 -0.381633 92 89 75
1.67139 1.57379 8.12608 -0.162056 -0.92269 -0.349829 85 79 61
1.72734 1.56846 8.11597 -0.46448 -0.869062 -0.170261 86 78 60
0.13455 1.88078 8.26771 -0.145968 -0.96052 -0.236843 104 99 87
0.171344 1.87234 8.26878 0.0733831 -0.976911 -0.200648 103 98 86
0.256598 1.8554 8.24305 -0.261003 -0.929837 -0.259384 89 84 71
0.288003 1.85147 8.22145 -0.261814 -0.926652 -0.269759 97 91 79
0.288021 1.85141 8.22127 -0.268752 -0.927686 -0.259174 97 92 79
0.288021 1.85141 8.22127 -0.268752 -0.927686 -0.259174 97 92 79
0.318657 1.83907 8.24388 -0.2711 -0.923818 -0.270305 99 94 81
0.318181 1.84076 8.2489 -0.124096 -0.962453 -0.241423 99 93 80
0.318181 1.84076 8.2489 -0.124096 -0.962453 -0.241423 99 93 80
0.352583 1.83607 8.2134 -0.22166 -0.880223 -0.419611 99 93 80
0.390885 1.80477 8.14785 -0.61803 0.295114 -0.728661 108 100 89
0.371788 1.83539 8.20426 0.0232266 -0.887992 -0.459271 105 98 85
0.386401 1.82357 8.23212 -0.596971 -0.717146 -0.359622 104 97 85
0.410267 1.8211 8.20104 -0.058937 -0.792269 -0.607319 105 97 84
0.412618 1.82533 8.19468 0.288543 -0.832781 -0.472461 103 96 83
