ply
format ascii 1.0
element vertex 749
property float x
property float y
property float z
property float nx
property float ny
property float nz
property uchar diffuse_red
property uchar diffuse_green
property uchar diffuse_blue
end_header
3.13305 1.39678 10.1478 -0.750629 -0.405965 -0.521295 116 108 94
3.10963 1.39107 10.0605 -0.832399 -0.434141 -0.344432 123 115 99
3.10997 1.39689 10.1491 -0.29111 -0.658515 -0.693984 111 103 90
3.14839 1.36591 10.0438 -0.0900715 -0.867236 -0.489683 130 122 107
3.17787 1.36234 10.1162 -0.544666 -0.609663 -0.575891 123 114 100
3.21924 1.34679 10.1581 -0.816754 -0.341194 -0.465294 116 108 92
3.21966 1.35048 10.1522 -0.557385 -0.35245 -0.751732 118 110 94
3.21358 1.34324 10.0933 -0.383104 -0.362194 -0.849733 121 113 97
3.24269 1.32064 10.1082 -0.829494 -0.27641 -0.485322 116 108 92
3.22205 1.33541 10.1583 -0.28663 -0.0192779 -0.957847 114 106 90
3.23557 1.3311 10.1324 -0.326302 -0.304983 -0.894714 114 106 90
3.26795 1.30539 10.1226 -0.643307 -0.643882 -0.414213 112 104 89
3.24192 1.30553 10.0441 -0.336757 -0.824546 -0.454664 120 112 96
3.25093 1.3079 10.1435 -0.614755 -0.113839 -0.780459 109 101 87
3.31192 1.27906 10.1248 -0.612953 -0.161758 -0.773384 115 107 92
3.34496 1.24971 10.1016 -0.346749 -0.836979 -0.423357 114 106 92
3.32262 1.25231 10.1239 -0.511217 -0.798528 -0.317819 105 97 83
3.335 1.27404 10.1264 -0.613182 -0.0962012 -0.784062 115 107 92
3.36318 1.23291 10.1079 -0.615399 -0.515867 -0.595958 116 108 95
3.37972 1.21573 10.116 -0.621233 -0.419649 -0.661789 92 84 71
3.38157 1.23122 10.0946 -0.605153 -0.511909 -0.609704 112 104 92
3.39658 1.21308 10.099 -0.616593 -0.569861 -0.543205 102 95 82
3.39033 1.23219 10.0921 -0.781533 -0.219314 -0.584045 112 105 92
3.41679 1.18972 10.1106 -0.632994 -0.23061 -0.739012 89 84 70
3.42311 1.20334 10.0894 -0.735474 -0.233052 -0.636211 103 97 83
3.43392 1.18284 10.0976 -0.728275 -0.338484 -0.595856 104 98 85
3.43089 1.18196 10.0894 -0.353206 -0.833983 -0.423932 105 99 85
3.45457 1.18006 10.0698 -0.38584 -0.613659 -0.688876 106 101 87
3.4463 1.1623 10.1026 -0.718898 -0.462969 -0.518503 82 76 64
3.47531 1.16656 10.0751 -0.502902 -0.560171 -0.658253 108 101 88
3.45797 1.16474 10.0919 -0.658657 -0.530605 -0.533507 102 96 83
3.49543 1.15197 10.0802 -0.249477 -0.799799 -0.54597 110 104 91
3.49454 1.13534 10.102 0.132881 -0.436012 -0.890076 85 78 66
3.52187 1.14009 10.0938 0.0261395 -0.47329 -0.880518 108 100 89
3.57294 1.1099 10.0798 -0.910741 -0.026626 -0.41212 101 94 82
3.57923 1.08587 10.0982 -0.663879 -0.631318 -0.400877 84 77 65
3.59632 1.1035 10.097 -0.872501 -0.157529 -0.462523 101 94 83
3.58376 1.09626 10.0584 -0.867281 -0.457985 -0.195126 102 95 83
3.62045 1.07351 10.0779 -0.842384 -0.177864 -0.508679 97 92 80
3.59641 1.06457 10.0944 -0.816558 -0.334431 -0.47052 94 87 76
3.66569 1.03974 10.0907 0.113597 -0.475362 -0.872426 85 79 65
3.69892 1.00261 10.0963 -0.266957 -0.802453 -0.533669 95 89 76
3.67348 1.01661 10.0869 -0.0269065 -0.366032 -0.930213 94 88 74
3.73233 1.00245 10.0844 -0.629385 -0.696385 -0.344852 83 77 64
3.74512 0.99459 10.0595 -0.0727741 -0.803286 -0.591131 94 88 74
3.74316 0.982379 10.0777 -0.482356 -0.303428 -0.821745 86 80 66
3.78048 0.959588 10.062 -0.433532 -0.331408 -0.837985 75 69 55
3.76207 0.960363 10.0764 -0.66496 -0.174239 -0.726271 96 89 76
3.7613 0.965087 10.0697 -0.163883 -0.407375 -0.898436 90 84 70
3.79429 0.941825 10.0505 -0.353246 -0.650084 -0.672762 69 65 50
3.81465 0.926753 10.0525 -0.321268 -0.391166 -0.862425 74 71 56
3.83558 0.926321 10.042 -0.590985 -0.328536 -0.736751 76 71 57
3.83334 0.90984 10.0657 -0.290846 -0.67786 -0.675214 88 83 70
3.83804 0.908888 10.0606 -0.330853 -0.743112 -0.581654 85 80 66
3.88761 0.885753 10.078 -0.236897 -0.790708 -0.5645 76 71 58
3.92245 0.868431 10.0447 -0.90393 -0.0744753 -0.421146 76 73 61
4.03961 0.783554 10.0421 -0.378103 -0.834748 -0.400292 74 72 60
4.09503 0.757258 10.0235 -0.624081 -0.753947 -0.205152 94 88 74
4.16653 0.713507 10.0453 -0.370085 -0.784444 -0.49768 104 98 81
4.186 0.694214 10.04 -0.50834 -0.7648 -0.395819 107 100 82
4.25454 0.656533 10.0537 -0.37889 -0.890753 -0.250999 106 99 83
4.2696 0.632801 9.98982 -0.743265 -0.13938 -0.654317 95 87 73
4.26122 0.638466 10.0763 -0.453929 -0.850252 -0.266496 123 114 97
4.24512 0.594837 9.84711 -0.675881 -0.706695 -0.209206 96 88 72
4.24512 0.594837 9.84711 -0.675881 -0.706695 -0.209206 96 88 72
4.30007 0.601042 10.0257 -0.649476 -0.283564 -0.70553 115 108 91
4.31667 0.595488 10.0077 -0.663289 -0.618609 -0.421154 107 99 83
4.26693 0.573334 9.84413 -0.774571 -0.536773 -0.334536 97 88 72
4.26693 0.573334 9.84413 -0.774571 -0.536773 -0.334536 97 88 72
4.26693 0.573334 9.84413 -0.774571 -0.536773 -0.334536 97 88 72
4.33755 0.574332 10.0096 -0.561141 -0.372752 -0.739038 112 105 87
4.30095 0.558764 9.88498 0.1416 -0.670148 -0.728595 105 96 78
4.30095 0.558764 9.88498 0.1416 -0.670148 -0.728595 105 96 78
4.36599 0.552015 9.98736 -0.641438 -0.396887 -0.656534 111 103 85
4.36224 0.556689 10.0315 -0.442125 -0.146505 -0.884908 119 111 92
0.842979 2.82105 9.97009 0.8941 -0.248555 -0.372567 25 29 28
0.8191 2.82479 10.0092 0.472196 -0.875731 -0.100632 24 28 27
0.855157 2.82284 10.0033 0.424968 -0.904494 -0.0359506 26 30 28
0.896285 2.81334 10.0279 0.59482 -0.50692 -0.623875 27 31 30
0.893957 2.81197 10.0641 0.621753 -0.732284 -0.277821 26 30 29
0.922109 2.7997 10.0581 0.145256 -0.946483 -0.288221 27 31 30
0.928486 2.79688 10.0956 0.473882 -0.874145 -0.106333 27 31 30
0.919973 2.80584 10.0799 0.56943 -0.809205 -0.144694 27 31 30
0.949202 2.80138 10.0771 0.378343 -0.904326 -0.197614 32 36 35
1.74877 2.36323 10.2542 -0.00187526 -0.985062 -0.172188 45 47 50
1.81403 2.33712 10.3446 0.419696 -0.722252 -0.549733 48 50 52
1.79071 2.33698 10.3253 0.104267 -0.95113 -0.290653 48 50 52
1.97828 2.12929 10.043 0.702572 -0.639373 -0.312402 57 59 53
1.98688 2.12539 10.044 0.714153 -0.603414 -0.354791 65 68 62
2.00224 2.12332 10.0517 0.621851 -0.72544 -0.295022 90 91 84
2.3968 1.87365 10.1209 -0.0479326 -0.717009 -0.695414 113 104 89
2.41786 1.86176 10.1249 -0.101435 -0.859371 -0.501191 118 110 94
2.45834 1.82782 10.0755 -0.430787 -0.857412 -0.281544 117 108 92
2.50163 1.81654 10.0953 0.251455 -0.938608 -0.236192 118 110 93
2.50163 1.81654 10.0953 0.251455 -0.938608 -0.236192 118 110 93
2.52334 1.78027 10.0152 0.123108 -0.964505 -0.233611 114 106 90
2.56379 1.75275 10.0677 -0.517226 -0.834771 -0.188774 118 108 95
2.55375 1.76901 10.0454 -0.67299 -0.706154 -0.220069 115 106 91
2.58048 1.7473 10.0354 -0.530077 -0.758177 -0.379717 93 83 70
2.63277 1.70357 10.01 -0.837237 -0.179066 -0.516691 112 102 89
2.63343 1.70024 10.0608 -0.828821 -0.427818 -0.360594 127 118 104
2.64603 1.68598 10.0325 -0.800846 -0.336266 -0.495552 124 115 101
2.70665 1.65003 9.9765 -0.660778 -0.720575 -0.210106 125 116 100
2.73221 1.63113 9.9853 -0.711251 -0.627883 -0.316046 124 115 99
2.75426 1.6194 9.96702 -0.7474 -0.246348 -0.617014 120 112 95
2.82771 1.60303 10.0521 0.298854 -0.893536 -0.335081 126 118 101
2.84268 1.55993 9.99314 -0.335855 -0.570451 -0.749525 128 120 103
2.84579 1.56246 9.9912 -0.787808 -0.44911 -0.421496 127 119 103
2.88187 1.53574 9.96307 -0.285572 -0.785644 -0.548828 127 119 104
2.93471 1.49346 9.95233 -0.598645 -0.37151 -0.709651 128 121 103
2.92622 1.50436 9.98987 -0.541624 -0.450925 -0.709444 130 123 106
2.9145 1.5099 10.0193 -0.239201 -0.66447 -0.707999 130 123 107
2.9533 1.48032 9.97397 -0.187975 -0.722316 -0.665526 130 123 106
3.01096 1.46507 10.0221 -0.823964 -0.51536 -0.235558 122 115 98
3.05028 1.44158 10.0548 -0.477727 -0.176435 -0.860609 130 123 107
3.08933 1.40456 10.0365 -0.846924 -0.42199 -0.323488 127 119 103
3.12385 1.38291 9.95941 0.153204 -0.42737 -0.891001 125 117 100
3.13798 1.3665 9.97617 0.0456712 -0.454014 -0.889823 130 122 107
3.14051 1.36906 9.98829 -0.633306 -0.689258 -0.351918 130 122 107
3.15937 1.36556 10.0494 -0.485083 -0.504254 -0.714439 131 122 107
3.18674 1.35664 10.0752 -0.426621 -0.823418 -0.374134 124 116 100
3.26973 1.28363 9.99573 -0.622389 -0.518868 -0.58601 122 114 97
3.2829 1.29236 10.0469 -0.750552 -0.19084 -0.632655 121 113 97
3.28205 1.27971 9.995 -0.555278 -0.626894 -0.546508 122 114 98
3.35016 1.24979 10.0114 -0.633684 -0.698905 -0.331627 120 113 98
3.35016 1.24979 10.0114 -0.633684 -0.698905 -0.331627 120 113 98
3.38194 1.24273 10.0546 -0.609856 -0.483548 -0.627898 119 113 98
3.36586 1.24759 9.99209 -0.751105 -0.111823 -0.650643 125 117 101
3.36914 1.23429 10.0238 -0.608234 -0.772297 -0.183328 121 114 99
3.36914 1.23429 10.0238 -0.608234 -0.772297 -0.183328 121 114 99
3.36535 1.24412 10.0501 -0.608652 -0.112135 -0.785473 118 111 97
3.43122 1.2043 10.0358 -0.106361 -0.96063 -0.256668 117 111 98
3.41471 1.18076 9.95999 -0.573668 -0.697738 -0.42903 121 115 100
3.42511 1.21695 10.0355 -0.695136 -0.461767 -0.55096 123 117 101
3.45268 1.17367 9.99743 0.214886 -0.868834 -0.446041 118 112 97
3.48549 1.16436 10.0428 -0.932503 -0.0484404 -0.3579 107 102 87
3.4838 1.16665 10.007 -0.762337 -0.614893 -0.201864 114 108 95
3.49586 1.13094 9.95337 -0.778921 -0.515003 -0.357845 113 107 92
3.54288 1.14652 10.0345 -0.674066 -0.71719 -0.176842 113 106 93
3.76101 0.997956 10.0234 -0.0806301 -0.776255 -0.625242 110 104 90
3.76564 0.985986 10.0612 -0.681014 -0.217646 -0.699178 93 87 73
3.77799 0.979866 10.0357 -0.665534 -0.355636 -0.656192 103 97 84
3.78656 0.974873 9.9987 -0.846624 -0.444051 -0.293336 112 105 90
3.79348 0.960134 10.0308 -0.619159 -0.590378 -0.51778 86 81 67
3.8157 0.945799 10.0366 -0.324692 -0.22858 -0.917783 81 77 63
3.81178 0.959166 10.0136 -0.635605 -0.437996 -0.63574 98 92 78
3.79369 0.962985 9.96249 -0.798836 -0.215623 -0.561576 117 111 96
3.82136 0.953648 9.98194 -0.652782 -0.307969 -0.692121 112 106 92
3.83869 0.935876 9.99694 -0.64822 -0.516995 -0.559041 96 91 77
3.82809 0.94064 10.0278 -0.37237 -0.45411 -0.809398 90 84 71
3.82639 0.944173 9.98166 -0.772473 -0.500287 -0.39115 103 98 84
3.8506 0.920323 9.96416 -0.781913 -0.325318 -0.531772 99 96 80
3.84813 0.922911 10.0368 -0.514323 -0.537754 -0.668051 79 74 60
3.8822 0.905239 9.95637 -0.433889 -0.575989 -0.692803 100 98 84
3.90011 0.886147 9.94942 -0.489176 -0.795249 -0.358171 97 94 82
3.90001 0.883272 9.93788 -0.516441 -0.583408 -0.626837 97 94 82
3.93368 0.878595 10.0156 -0.49572 -0.69307 -0.52337 87 85 73
3.9594 0.831267 9.94268 -0.350062 -0.905962 -0.238097 48 49 37
4.01123 0.792832 9.96967 -0.11343 -0.931368 -0.345957 70 66 56
4.06786 0.782987 10.0313 -0.53539 -0.813074 -0.228624 76 73 59
4.15471 0.730187 10.0132 -0.243007 -0.796652 -0.553437 81 75 59
4.1839 0.71472 10.0271 -0.522471 -0.817705 -0.241626 85 79 62
4.22615 0.676983 9.92377 -0.818147 -0.461178 -0.34344 71 65 50
4.22494 0.665529 9.89866 -0.864709 0.397834 -0.306606 70 64 50
4.23249 0.661633 9.94476 -0.210213 -0.755192 -0.620883 73 67 53
4.2513 0.60987 9.89136 -0.73705 0.0461776 -0.674259 90 82 67
0.83893 2.82757 9.90999 0.874362 -0.0395756 -0.483659 24 29 28
0.921051 2.81199 10.0366 0.350929 -0.886723 -0.30095 27 31 30
0.948073 2.81448 10.0569 0.112066 -0.974871 -0.192528 35 39 38
0.958742 2.81082 10.0874 0.564053 -0.802767 -0.193415 34 39 38
0.981185 2.7908 10.0754 0.451054 -0.891861 -0.0336756 33 37 36
0.99392 2.80583 10.0705 0.650408 -0.756307 -0.0704961 29 33 32
1.78348 2.3473 10.182 0.434228 -0.886335 -0.160796 40 45 47
1.81503 2.35359 10.2622 0.444041 -0.881977 -0.15794 39 44 47
1.80479 2.34049 10.2381 0.775276 -0.548299 -0.313555 45 51 54
1.80479 2.34049 10.2381 0.775276 -0.548299 -0.313555 45 51 54
1.84541 2.33579 10.291 0.357355 -0.921365 -0.152918 41 46 49
1.84399 2.34736 10.3057 0.385378 -0.908614 -0.160951 42 46 49
1.87233 2.22483 10.0297 0.24718 -0.959359 -0.136138 38 44 46
1.84541 2.33579 10.291 0.357355 -0.921365 -0.152918 41 46 49
1.84399 2.34736 10.3057 0.385378 -0.908614 -0.160951 42 46 49
1.84531 2.33245 10.2908 0.404661 -0.899691 -0.163727 42 46 49
1.84531 2.33245 10.2908 0.404661 -0.899691 -0.163727 42 46 49
1.84552 2.33873 10.2979 0.394217 -0.904878 -0.160589 42 46 49
1.84399 2.34736 10.3057 0.385378 -0.908614 -0.160951 42 46 49
2.01319 2.16527 10.0583 0.653612 -0.702842 -0.280723 76 76 68
2.30484 1.90914 9.91653 -0.838101 -0.0365146 -0.544291 108 101 87
2.33459 1.89973 9.90948 -0.733907 -0.0118762 -0.679146 110 102 88
2.52714 1.80082 10.0098 0.0701012 -0.977901 -0.196968 113 105 89
2.57545 1.76435 10.0179 -0.635505 -0.655025 -0.408749 114 105 90
2.56988 1.76211 10.0174 -0.736934 -0.631868 -0.240147 115 105 91
2.5688 1.77031 9.9681 -0.618673 -0.759638 -0.200483 112 103 88
2.59852 1.74926 10.0199 -0.388825 -0.710969 -0.58595 91 81 67
2.63003 1.72985 9.9989 -0.857807 -0.000824958 -0.513971 85 76 62
2.61338 1.7302 10.0116 -0.616778 -0.711346 -0.337004 85 75 62
2.64583 1.71813 9.98573 -0.82869 0.150214 -0.539174 85 75 62
2.71041 1.65547 9.9139 -0.678753 -0.686292 -0.26134 95 87 71
2.73676 1.63287 9.89153 -0.518233 -0.0456017 -0.854023 98 90 74
2.72788 1.63886 9.96624 -0.59192 -0.782232 -0.19428 120 112 96
2.74493 1.61768 9.90841 -0.501799 -0.0521138 -0.863413 116 108 92
2.76098 1.61207 9.91179 -0.59607 -0.645259 -0.477851 115 107 90
2.8026 1.59939 9.94068 -0.826377 -0.498212 -0.262461 118 110 93
2.83751 1.56301 9.90881 -0.652216 -0.556551 -0.514651 117 109 92
2.83471 1.57104 9.87568 -0.433075 -0.883865 -0.176716 111 103 87
2.82529 1.57709 9.90805 -0.149849 -0.929793 -0.336199 115 107 91
2.85406 1.5541 9.8776 -0.404656 -0.83692 -0.368536 112 104 89
2.8599 1.56147 9.97559 -0.51893 -0.735419 -0.435741 124 117 101
2.88465 1.52375 9.88258 -0.331664 -0.425068 -0.842209 117 109 95
2.87855 1.53758 9.92726 0.187808 -0.620677 -0.761241 123 116 100
2.87164 1.53953 9.87784 -0.331531 -0.754172 -0.566843 112 104 89
2.90749 1.51563 9.89963 -0.489557 -0.568132 -0.661484 119 111 96
2.89984 1.52351 9.86267 -0.625806 -0.0792228 -0.775945 103 95 81
2.91776 1.5145 9.92693 -0.655388 -0.296718 -0.694569 121 114 98
2.90048 1.52108 9.88393 -0.595694 -0.713774 -0.368342 113 106 91
2.93896 1.50809 9.93274 -0.795493 0.113722 -0.595195 116 109 92
2.92615 1.51858 9.88806 -0.398738 -0.660347 -0.636356 113 106 90
2.95686 1.49436 9.95238 -0.71598 -0.361931 -0.596975 123 116 99
3.02426 1.4398 9.89396 0.00452868 -0.815264 -0.579072 119 111 96
3.10907 1.3994 9.93694 0.0572057 -0.861759 -0.504082 116 108 92
3.12383 1.37899 9.88333 -0.645837 -0.486731 -0.588208 117 109 93
3.12785 1.39428 9.92411 -0.328012 -0.26345 -0.907195 116 108 92
3.13827 1.37534 9.93659 -0.348492 -0.732662 -0.584603 121 113 97
3.14461 1.36662 9.89088 -0.263768 -0.519377 -0.812819 120 112 96
3.13942 1.37643 9.86602 -0.659609 -0.597723 -0.455679 111 103 87
3.16267 1.36326 9.8814 -0.609039 -0.385593 -0.693101 117 108 93
3.18891 1.35545 9.89933 -0.259182 -0.431654 -0.864002 119 110 94
3.30425 1.27487 9.87102 -0.309393 -0.92968 -0.199928 125 117 100
3.43729 1.19921 9.93252 -0.00393587 -0.949655 -0.313275 124 116 101
3.46673 1.17766 9.93021 -0.0397513 -0.952368 -0.30235 122 114 99
3.62579 1.06533 9.93449 -0.386247 -0.899307 -0.205086 116 110 93
3.64001 1.01374 9.75173 0.626533 0.0489275 -0.777858 130 122 104
3.75834 0.994187 9.96855 -0.829448 0.101478 -0.549288 117 111 96
3.72809 1.0051 9.90053 -0.81405 0.0924157 -0.573395 121 114 98
3.72809 1.0051 9.90053 -0.81405 0.0924157 -0.573395 121 114 98
3.77171 0.984942 9.94519 -0.668472 -0.284993 -0.686967 124 118 101
3.78375 0.963074 9.93079 -0.63547 -0.256338 -0.728333 122 116 100
3.79782 0.957416 9.91113 -0.864288 0.219964 -0.452352 120 114 100
3.86757 0.890879 9.85933 -0.427019 -0.765317 -0.481605 106 103 90
3.86757 0.890879 9.85933 -0.427019 -0.765317 -0.481605 106 103 90
3.94518 0.835687 9.85663 -0.390089 -0.893524 -0.222363 66 66 54
4.00024 0.821322 9.91846 -0.401146 -0.888855 -0.221402 71 71 58
3.98186 0.823807 9.82239 -0.388566 -0.894304 -0.221892 75 73 60
4.0273 0.80448 9.85864 -0.410086 -0.88585 -0.217023 102 100 84
4.05691 0.77728 9.85502 -0.353115 -0.904473 -0.239245 117 113 97
4.0999 0.771435 9.93077 -0.317953 -0.912352 -0.257916 114 109 94
4.10576 0.765906 9.92704 -0.480808 -0.847997 -0.222989 114 109 93
4.07898 0.74854 9.80394 0.411555 0.226529 -0.882784 121 114 100
4.08211 0.72585 9.74737 -0.538811 -0.656415 -0.528017 120 112 98
4.08882 0.724611 9.75142 -0.525501 -0.532016 -0.663934 119 111 97
4.14848 0.710635 9.83103 0.191198 -0.830386 -0.523357 85 76 61
4.17976 0.685672 9.7966 -0.825278 0.125453 -0.550617 79 72 57
0.83214 2.87395 9.91133 0.742098 -0.651541 -0.157431 25 29 28
0.858268 2.86519 9.93117 0.565377 -0.808103 -0.165282 27 31 30
0.856877 2.86008 9.90193 -0.131888 -0.957874 -0.255115 27 31 30
0.867424 2.87833 9.97421 0.50694 -0.328865 -0.796781 28 31 30
0.891724 2.86366 10.0133 0.662397 -0.471463 -0.582197 29 32 31
0.919835 2.86765 10.0434 0.66076 -0.519806 -0.541479 28 32 31
0.945238 2.8469 10.0229 0.652332 -0.597789 -0.465953 27 31 30
0.930966 2.86466 10.0641 0.789635 -0.5048 -0.348789 29 33 32
1.03527 2.78363 9.98573 0.0260894 -0.999007 -0.0361067 27 31 30
1.83201 2.29779 10.0621 0.741431 -0.568231 -0.356924 36 43 46
1.87023 2.19776 9.85111 0.53846 -0.8163 -0.209081 38 45 48
1.87023 2.19776 9.85111 0.53846 -0.8163 -0.209081 37 44 47
1.87027 2.1985 9.85277 0.538314 -0.817132 -0.206186 37 44 47
1.89682 2.18131 9.86516 0.168478 -0.977953 -0.123385 40 46 47
1.87146 2.215 9.94837 0.458549 -0.870062 -0.180903 38 45 47
1.87173 2.21783 9.96229 0.453828 -0.872768 -0.17977 39 45 48
1.92636 2.17385 9.88146 -0.175842 -0.977226 -0.118781 42 47 45
2.2186 1.98054 9.89929 -0.448567 -0.862316 -0.234945 106 103 90
2.23585 1.97857 9.8763 -0.501838 -0.846562 -0.177459 85 81 67
2.24784 1.97317 9.92836 -0.735321 -0.591297 -0.331166 103 97 84
2.27377 1.94959 9.85632 -0.702148 -0.654128 -0.281255 87 79 66
2.25829 1.95579 9.88173 -0.723145 -0.618856 -0.306722 92 86 73
2.27808 1.94658 9.85822 -0.702473 -0.666591 -0.249376 90 83 69
2.3323 1.89447 9.81435 -0.814501 -0.15521 -0.559016 103 95 81
2.34659 1.8876 9.86299 -0.387254 -0.708279 -0.590233 111 103 89
2.36064 1.88041 9.82868 -0.405253 -0.667013 -0.625192 113 105 91
2.3668 1.87873 9.87589 -0.447285 -0.597697 -0.665354 110 102 87
2.42775 1.83463 9.84028 -0.577552 -0.767763 -0.277439 115 107 91
2.46865 1.81574 9.82761 -0.797852 -0.505492 -0.328495 114 106 91
2.46944 1.80581 9.84571 -0.826611 -0.434526 -0.357634 115 107 92
2.49776 1.79206 9.82047 -0.704035 -0.423923 -0.569758 116 108 93
2.51981 1.755 9.79298 -0.902236 -0.136571 -0.409046 113 105 88
2.51811 1.77834 9.83776 -0.32606 -0.649198 -0.687188 116 108 92
2.61614 1.72231 9.8641 -0.508023 -0.836168 -0.206727 110 103 87
2.63314 1.71519 9.8265 -0.529184 -0.829936 -0.176553 112 105 88
2.64601 1.70635 9.87099 -0.523583 -0.826908 -0.205145 110 102 86
2.67616 1.69011 9.88289 -0.569088 -0.801056 -0.185602 103 95 79
2.71075 1.66446 9.8845 -0.553187 -0.800563 -0.230397 93 86 69
2.70397 1.67009 9.88734 -0.607932 -0.768265 -0.200467 95 87 71
2.70221 1.67888 9.86028 -0.572689 -0.769048 -0.283889 110 103 86
2.72511 1.6503 9.89178 -0.461088 -0.145378 -0.875365 87 79 63
2.74315 1.64914 9.87905 -0.724746 -0.533774 -0.435694 95 87 71
2.75912 1.64534 9.86092 -0.707213 -0.623442 -0.333421 110 102 86
2.75775 1.62722 9.891 -0.613476 -0.661926 -0.4307 99 92 75
2.75991 1.63045 9.88342 -0.780716 -0.451499 -0.43201 92 84 68
2.77769 1.62526 9.86206 -0.587749 -0.737293 -0.333092 97 89 73
2.7976 1.61498 9.90956 -0.802637 -0.538015 -0.257514 103 96 79
2.79907 1.60824 9.86209 -0.600538 -0.693968 -0.397193 95 87 70
2.8739 1.55356 9.83555 -0.557756 -0.661112 -0.501836 90 81 67
2.85355 1.56652 9.82949 -0.743975 -0.631746 -0.217713 90 82 66
2.8604 1.55572 9.85959 -0.60122 -0.770148 -0.213091 98 90 75
2.8894 1.53781 9.84198 -0.646787 -0.466537 -0.603332 90 82 67
2.88462 1.54574 9.80563 -0.681467 -0.686882 -0.25258 91 83 68
2.87629 1.54318 9.86572 -0.52143 -0.820952 -0.2327 99 91 77
2.91778 1.52582 9.84948 -0.56941 -0.588381 -0.574091 94 87 72
2.90798 1.53103 9.83609 -0.698057 -0.533518 -0.477572 89 81 66
2.90086 1.52498 9.7892 -0.836874 -0.197794 -0.510411 88 80 66
2.93959 1.51636 9.86265 -0.138202 -0.777753 -0.613189 108 101 85
2.95455 1.49537 9.85351 -0.78484 0.000123456 -0.619699 114 107 91
2.95861 1.50631 9.82844 -0.778572 -0.356742 -0.516296 101 93 78
2.99482 1.4839 9.84592 -0.762636 -0.100902 -0.638909 109 101 86
2.99968 1.47934 9.85514 -0.764844 -0.471091 -0.439417 107 99 83
3.02404 1.45538 9.87068 -0.0913179 -0.54533 -0.833232 109 101 86
3.03491 1.3419 9.55048 0.701711 -0.141394 -0.69829 113 104 87
3.12402 1.3933 9.8621 -0.760328 -0.218831 -0.611567 108 100 85
3.16312 1.37338 9.88163 0.146922 -0.737932 -0.658688 115 106 91
3.17802 1.37812 9.8512 0.1566 -0.652284 -0.741621 111 102 87
3.18272 1.36348 9.87504 -0.631876 -0.646465 -0.427569 118 109 93
3.23304 1.31367 9.79264 -0.0192556 -0.74695 -0.664601 112 103 87
3.20868 1.32253 9.781 -0.309403 -0.44194 -0.841997 114 105 89
3.2585 1.29929 9.79215 -0.138373 -0.921611 -0.36261 119 110 93
3.23947 1.30009 9.82708 -0.444669 -0.562909 -0.696709 120 111 94
3.25238 1.30044 9.80426 -0.192675 -0.71242 -0.674785 123 114 97
3.2876 1.28859 9.80482 -0.42198 -0.861113 -0.28358 113 105 88
3.28208 1.28447 9.85398 -0.349494 -0.91392 -0.206407 128 120 103
3.31679 1.26949 9.83718 -0.602402 -0.528077 -0.598537 122 113 97
3.29617 1.28334 9.82109 -0.328442 -0.640863 -0.693844 117 109 93
3.3452 1.2563 9.86007 -0.678402 -0.583469 -0.44647 125 116 100
3.45117 1.1769 9.8342 -0.212381 -0.948806 -0.2338 117 109 93
3.49071 1.15864 9.8594 -0.910944 -0.0474307 -0.409796 112 105 88
3.48369 1.16424 9.83667 -0.00508019 -0.788585 -0.614905 111 104 87
3.54491 1.12343 9.78563 -0.629366 -0.686247 -0.364643 119 111 95
3.54685 1.13646 9.8466 -0.848892 -0.402095 -0.343077 119 111 96
3.59729 1.10291 9.82221 -0.637344 -0.713287 -0.291573 122 114 98
3.63348 1.06504 9.79489 -0.752438 -0.378207 -0.539256 121 113 96
3.61613 1.08145 9.8074 -0.55702 -0.743381 -0.370288 115 107 92
3.73555 1.01192 9.84305 -0.868219 -0.387201 -0.310275 119 111 95
3.74654 0.978374 9.78501 -0.14102 -0.947781 -0.28605 117 112 95
3.76925 0.992651 9.81345 -0.038256 -0.940417 -0.337864 122 115 98
3.94202 0.845151 9.80031 -0.393697 -0.893221 -0.217161 89 88 76
3.98393 0.836646 9.78037 0.289124 0.541281 -0.789571 81 77 65
4.06482 0.763345 9.78027 0.567598 -0.0502653 -0.82177 122 116 100
4.08355 0.739229 9.75451 0.46995 0.13835 -0.871783 121 114 100
0.864646 2.8714 9.91858 0.712471 -0.698091 -0.0710839 27 30 29
0.881772 2.8994 9.97297 0.684145 -0.326019 -0.652424 26 30 28
0.904197 2.90234 9.98658 0.806273 -0.575642 -0.136236 25 29 27
0.885635 2.89281 10.0111 0.570332 0.0265945 -0.820983 26 29 28
1.0284 2.82594 10.0165 0.327979 -0.944514 -0.0179842 25 29 27
1.87204 2.22037 9.83221 -0.11246 -0.988025 -0.105639 36 42 45
1.90127 2.19451 9.84801 -0.130984 -0.985149 -0.111013 39 45 46
1.899 2.20113 9.8219 -0.141496 -0.983079 -0.116333 38 44 44
1.9263 2.17777 9.8465 -0.230692 -0.954892 -0.186981 44 48 45
1.92639 2.18424 9.81662 -0.147359 -0.982787 -0.111423 53 56 52
1.92698 2.18291 9.81483 -0.15914 -0.9807 -0.113589 54 57 53
1.95512 2.167 9.85583 -0.236208 -0.963742 -0.124126 75 78 72
1.95524 2.17187 9.82319 -0.177023 -0.977179 -0.117404 92 94 86
1.98339 2.15631 9.86839 -0.0964627 -0.988739 -0.114413 98 99 89
2.23979 1.97149 9.78385 -0.595702 -0.772834 -0.218786 79 73 60
2.22174 1.96556 9.78416 -0.789107 -0.537953 -0.296506 79 74 60
2.25951 1.94315 9.7739 -0.713869 -0.636717 -0.291518 82 76 62
2.2482 1.96376 9.83295 -0.743082 -0.593475 -0.309219 79 73 59
2.27971 1.93436 9.74831 -0.49425 -0.796705 -0.347819 86 79 66
2.30906 1.91893 9.76532 -0.595467 -0.775491 -0.209837 92 85 71
2.33093 1.9149 9.80126 -0.728036 -0.611759 -0.309378 102 95 81
2.31631 1.92221 9.82792 -0.62188 -0.532992 -0.573746 102 95 81
2.36768 1.86758 9.72491 -0.641618 -0.670305 -0.372851 109 101 87
2.39006 1.85547 9.74239 -0.624437 -0.68178 -0.381121 113 105 91
2.43163 1.83275 9.73704 -0.721529 -0.652202 -0.232439 108 100 84
2.43273 1.83714 9.73837 -0.602498 -0.774735 -0.191785 108 100 84
2.45863 1.82421 9.77938 -0.761417 -0.59838 -0.24937 109 101 85
2.4865 1.81322 9.81565 -0.78287 -0.333897 -0.525002 113 105 90
2.51742 1.79363 9.81632 -0.707594 -0.556211 -0.435821 114 106 91
2.59264 1.74028 9.82008 -0.417443 -0.778841 -0.468132 114 107 90
2.60381 1.73012 9.77183 -0.254035 -0.745163 -0.616602 116 109 92
2.61581 1.73325 9.83828 -0.397318 -0.440109 -0.805259 115 108 91
2.60417 1.72263 9.7573 -0.17633 -0.841117 -0.511303 116 109 92
2.62766 1.70278 9.71178 -0.235842 -0.59926 -0.765027 111 104 87
2.71549 1.6638 9.80114 -0.433893 -0.868315 -0.240346 115 107 91
2.71549 1.6638 9.80114 -0.433893 -0.868315 -0.240346 115 107 91
2.74069 1.64641 9.81044 -0.399567 -0.901706 -0.165146 117 109 92
2.77331 1.63937 9.83639 -0.615198 -0.689477 -0.382299 115 107 91
2.82446 1.59452 9.79748 -0.544752 -0.812973 -0.205718 114 106 89
2.83734 1.5788 9.79657 -0.575612 -0.798006 -0.178486 108 100 83
2.83733 1.58281 9.74687 -0.579529 -0.795475 -0.177107 115 106 90
2.83813 1.58409 9.75073 -0.581667 -0.793803 -0.177597 115 106 90
2.87164 1.54917 9.76053 -0.820366 -0.520388 -0.237057 101 92 77
2.86121 1.55814 9.78973 -0.567038 -0.778145 -0.270107 97 88 72
2.89675 1.53457 9.78619 -0.792399 -0.500319 -0.348977 89 81 66
2.91749 1.51635 9.77376 -0.849826 -0.202113 -0.486771 88 81 66
2.94343 1.51747 9.78812 -0.7067 -0.0580593 -0.705127 87 79 65
2.98596 1.47611 9.72454 -0.384663 -0.824322 -0.415364 103 95 80
2.99665 1.47354 9.77587 -0.338006 -0.870802 -0.357011 110 102 86
2.99141 1.48349 9.79286 -0.761765 -0.483608 -0.431088 109 101 85
3.1092 1.39682 9.69051 -0.612906 -0.65977 -0.434799 112 103 87
3.16989 1.36347 9.73325 -0.891562 -0.0809085 -0.445614 108 99 83
3.19444 1.35517 9.78928 -0.818438 -0.255092 -0.514866 114 105 89
3.26043 1.31385 9.76678 -0.761638 -0.588829 -0.270533 113 105 88
3.28382 1.29763 9.75964 -0.338067 -0.922722 -0.185189 115 106 90
3.31056 1.27956 9.77677 -0.437052 -0.807546 -0.39605 113 104 88
3.31828 1.26906 9.73243 -0.688342 -0.502179 -0.523452 114 105 90
3.33723 1.25277 9.74578 -0.677231 -0.69762 -0.233847 113 103 88
3.36447 1.23422 9.75984 -0.594165 -0.76956 -0.233978 115 106 90
3.3599 1.23559 9.69168 -0.849372 -0.371421 -0.374986 116 107 91
3.35321 1.23184 9.74666 -0.856395 -0.437304 -0.274506 117 106 92
3.42768 1.19952 9.75638 -0.30674 -0.838674 -0.45004 115 106 91
3.44496 1.19839 9.73756 -0.524824 -0.529957 -0.666113 111 103 88
3.49667 1.1606 9.71967 -0.766302 -0.610101 -0.201391 113 105 89
3.50966 1.1484 9.69936 -0.843847 -0.479016 -0.241796 112 105 88
3.53257 1.13885 9.74424 -0.76139 -0.626669 -0.166049 117 110 94
3.60539 1.11746 9.76671 -0.958033 -0.139682 -0.250323 111 103 87
3.62406 1.08138 9.7511 -0.0137132 -0.606589 -0.794897 117 109 92
3.62294 1.06257 9.69497 -0.0661536 -0.699506 -0.711558 115 106 91
3.64552 1.06792 9.75086 -0.419179 -0.872077 -0.252529 116 107 92
3.63939 1.05268 9.74882 -0.728742 -0.411871 -0.547081 120 113 96
3.67544 1.03008 9.73224 -0.391295 -0.899007 -0.196657 119 111 95
3.66502 1.03515 9.68283 -0.283472 -0.870407 -0.402536 118 110 93
3.70713 1.01486 9.71435 -0.356293 -0.911866 -0.203853 117 109 92
3.70581 1.00945 9.73058 -0.271301 -0.933345 -0.235083 120 112 95
3.74644 0.996798 9.7548 -0.190542 -0.94469 -0.266936 114 108 91
3.7407 0.99562 9.72843 -0.303672 -0.926097 -0.223895 112 106 89
3.77538 0.975915 9.74554 -0.204814 -0.942148 -0.265345 111 105 89
3.79046 0.943624 9.70339 -0.219139 -0.939845 -0.262048 108 102 87
3.78731 0.954388 9.65059 -0.288629 -0.928607 -0.233198 108 103 87
3.81777 0.922677 9.69116 -0.161605 -0.947746 -0.275066 104 99 84
3.88786 0.876358 9.69499 -0.365817 -0.905414 -0.215416 63 59 48
3.9466 0.872969 9.70422 -0.392347 -0.895833 -0.208681 91 88 76
0.871947 2.86222 9.83623 0.74458 -0.662077 -0.0851739 25 29 27
1.89788 2.19907 9.77575 -0.173737 -0.97861 -0.110177 38 43 43
1.89986 2.20883 9.72952 -0.464419 -0.870682 -0.161951 39 43 42
1.92597 2.18598 9.77822 -0.336353 -0.931996 -0.135096 59 61 55
1.92663 2.18506 9.77729 -0.370981 -0.917745 -0.141834 61 62 57
1.92676 2.19122 9.74316 -0.463013 -0.87148 -0.161683 72 73 66
1.96109 2.1686 9.76922 -0.250308 -0.930024 -0.269073 111 112 100
2.18578 2.02024 9.7408 -0.62496 -0.639098 -0.448306 103 98 84
2.20765 2.00121 9.73956 -0.598219 -0.715008 -0.361798 95 90 76
2.22994 1.97585 9.73273 -0.666042 -0.699355 -0.259405 98 93 79
2.24592 1.96884 9.70286 -0.680884 -0.64194 -0.352576 102 96 82
2.25274 1.9551 9.73494 -0.66605 -0.687148 -0.290181 93 87 73
2.2686 1.94782 9.70443 -0.746119 -0.562064 -0.356918 97 90 76
2.31618 1.92708 9.70427 -0.507243 -0.845182 -0.16844 82 74 61
2.3454 1.90883 9.70271 -0.507785 -0.844907 -0.168187 86 79 65
2.37294 1.88396 9.68449 -0.643762 -0.733061 -0.219528 92 85 71
2.39808 1.86492 9.69075 -0.638005 -0.741009 -0.209419 96 88 74
2.38304 1.87107 9.71221 -0.611091 -0.712861 -0.344089 102 94 80
2.42268 1.84209 9.68734 -0.588277 -0.755749 -0.287703 105 97 82
2.4073 1.85203 9.7248 -0.703165 -0.674339 -0.225447 113 105 91
2.43923 1.8394 9.66411 -0.537923 -0.825282 -0.171899 99 91 76
2.44778 1.82895 9.70087 -0.375555 -0.914448 -0.150809 107 98 83
2.46845 1.82443 9.67291 -0.489292 -0.856747 -0.163027 104 96 81
2.59898 1.73929 9.73756 -0.230503 -0.515242 -0.825466 112 105 88
2.60811 1.69675 9.57562 -0.26846 -0.65563 -0.705746 105 98 82
2.61438 1.73906 9.71381 -0.306417 -0.633541 -0.710446 110 103 86
2.61438 1.73906 9.71381 -0.306417 -0.633541 -0.710446 110 103 86
2.60847 1.72025 9.65782 -0.245782 -0.635672 -0.731787 109 101 85
2.68965 1.67825 9.71542 -0.668621 -0.624116 -0.404259 116 108 91
2.72908 1.66739 9.75633 0.120053 -0.96965 -0.212991 121 112 96
2.81643 1.57084 9.59941 -0.80296 -0.0856899 -0.589841 115 106 90
2.83795 1.575 9.67133 -0.839207 -0.394919 -0.373859 117 108 92
2.90246 1.52985 9.64024 -0.737475 -0.0523296 -0.673344 116 107 93
2.92331 1.51586 9.65524 -0.690548 -0.540346 -0.480801 111 103 89
2.94393 1.51467 9.64954 -0.795647 -0.467877 -0.384754 111 102 88
2.96149 1.49611 9.6454 -0.594551 -0.67517 -0.43664 102 94 79
3.01621 1.47783 9.72268 -0.397873 -0.856138 -0.329734 95 87 72
3.11677 1.38851 9.65391 0.0944472 -0.835106 -0.541921 113 104 88
3.176 1.34101 9.58427 -0.922356 -0.272896 -0.273474 111 102 87
3.20059 1.32311 9.63765 -0.904635 -0.331706 -0.267594 111 103 86
3.21786 1.30934 9.58115 -0.15204 -0.964211 -0.217212 110 103 85
3.22488 1.30884 9.59766 0.221587 -0.913963 -0.339957 115 107 88
3.25161 1.30681 9.60948 -0.810956 -0.519506 -0.269191 112 104 87
3.33611 1.26933 9.64235 -0.906567 0.033815 -0.420706 108 99 84
3.49311 1.16284 9.62241 -0.902305 0.0376657 -0.42945 111 103 86
3.53257 1.15253 9.70207 -0.940072 -0.189432 -0.283513 114 106 90
3.51075 1.15767 9.69409 -0.787009 -0.594033 -0.16656 114 106 90
3.542 1.14595 9.71252 -0.673635 -0.213821 -0.707458 114 106 90
3.66629 1.05652 9.66879 -0.159605 -0.615679 -0.771664 108 100 84
3.6972 1.02644 9.6014 0.13625 -0.912172 -0.386496 121 113 94
3.68452 1.0401 9.66377 -0.0855597 -0.860347 -0.502476 113 105 88
3.68054 1.03691 9.6504 -0.276019 -0.912791 -0.301043 114 105 89
3.7061 1.02367 9.66897 -0.383167 -0.902844 -0.195079 121 113 96
3.73369 1.00064 9.66568 -0.359228 -0.910511 -0.204756 115 108 91
3.76515 0.980145 9.67307 -0.355673 -0.911062 -0.208479 114 108 91
3.77825 0.959381 9.58258 -0.352256 -0.912501 -0.207986 103 99 83
3.77448 0.947978 9.61567 -0.323574 -0.920558 -0.218797 104 99 84
3.81961 0.936498 9.65239 -0.195712 -0.941934 -0.272867 104 100 85
3.81961 0.936498 9.65239 -0.195712 -0.941934 -0.272867 104 100 85
3.81961 0.936498 9.65239 -0.195712 -0.941934 -0.272867 104 100 85
3.81865 0.911426 9.52223 -0.133219 -0.944679 -0.299722 87 84 71
3.82312 0.901647 9.57724 -0.235187 -0.937149 -0.257757 91 90 76
3.89288 0.89158 9.65525 -0.388396 -0.898048 -0.20654 55 52 40
3.91221 0.875718 9.56213 -0.117851 -0.941302 -0.316324 99 94 82
3.93665 0.879888 9.62528 -0.388287 -0.898376 -0.205313 97 93 81
3.97293 0.851819 9.62949 -0.425682 -0.883122 -0.197205 96 92 79
1.87686 2.24048 9.76293 -0.358891 -0.803554 -0.474868 35 40 42
2.26496 1.96033 9.66879 -0.631492 -0.716114 -0.297321 96 89 75
2.30222 1.93136 9.65347 -0.221838 -0.965412 -0.136998 95 88 74
2.33268 1.91919 9.66673 -0.452701 -0.877957 -0.155737 100 92 79
2.32961 1.91883 9.6204 -0.585388 -0.789841 -0.182954 110 102 89
2.35427 1.89928 9.62805 -0.433881 -0.879704 -0.194595 113 106 92
2.36439 1.89771 9.65284 -0.515918 -0.839712 -0.169448 112 104 90
2.39002 1.88075 9.66421 -0.610042 -0.769228 -0.190097 97 90 76
2.4027 1.86807 9.62286 -0.600329 -0.778081 -0.184918 102 94 80
2.4143 1.85811 9.66136 -0.573001 -0.799543 -0.180003 90 83 68
2.42973 1.84834 9.6221 -0.471445 -0.867798 -0.157056 92 85 70
2.46672 1.82497 9.62451 -0.45249 -0.878318 -0.154305 89 80 66
2.53563 1.76387 9.60054 -0.30858 -0.940173 -0.144406 94 86 71
2.55253 1.71658 9.49646 -0.243416 -0.514734 -0.822069 99 91 76
2.53859 1.73056 9.48504 -0.144552 -0.636049 -0.757988 101 93 79
2.54701 1.74888 9.54502 -0.163061 -0.762624 -0.625952 97 89 75
2.58178 1.70537 9.48833 -0.120871 -0.608282 -0.784464 104 97 81
2.57133 1.71357 9.4819 -0.128033 -0.613646 -0.779132 101 94 79
2.58615 1.69625 9.52464 -0.302905 -0.414759 -0.858035 105 98 82
2.59489 1.68935 9.49682 -0.0508907 -0.679218 -0.73217 104 97 80
2.62361 1.69657 9.55203 -0.24599 -0.755005 -0.607829 105 98 81
2.64561 1.68712 9.56393 -0.534387 -0.292606 -0.792977 107 99 83
2.67927 1.65637 9.54569 -0.00799883 -0.973029 -0.230542 108 99 83
2.66711 1.68755 9.61894 -0.652575 -0.319553 -0.687046 109 100 84
2.71313 1.64653 9.60404 -0.62183 -0.730982 -0.281058 116 107 91
2.78752 1.61861 9.63024 0.000284262 -0.887843 -0.460146 119 111 95
2.80306 1.59467 9.60988 -0.71074 -0.556322 -0.430528 118 109 93
2.81512 1.58926 9.57548 -0.503973 -0.803515 -0.31682 112 104 88
2.9063 1.53927 9.58842 -0.692597 -0.283891 -0.66311 115 107 92
2.90785 1.5309 9.58463 -0.714226 -0.614239 -0.335547 117 109 95
2.91502 1.52319 9.61274 -0.766152 0.0104018 -0.642575 119 111 96
2.92498 1.52615 9.56269 0.17312 -0.873048 -0.455869 111 104 88
2.98325 1.488 9.6139 -0.595919 -0.743167 -0.304275 113 105 90
2.96821 1.49458 9.56828 -0.862328 0.20528 -0.462872 115 107 91
2.97856 1.49474 9.57423 -0.785354 0.0216211 -0.618669 117 109 92
2.99848 1.47861 9.57642 -0.361392 -0.795366 -0.48661 120 112 96
3.05614 1.4337 9.55248 0.12312 -0.559336 -0.819747 95 87 71
3.079 1.42501 9.56234 0.159941 -0.625151 -0.763941 94 85 70
3.09884 1.41245 9.5597 0.184841 -0.629209 -0.754937 92 84 68
3.14164 1.39243 9.58683 -0.494585 -0.129369 -0.859447 97 88 73
3.11394 1.38417 9.57112 -0.534552 -0.33701 -0.775035 101 93 78
3.12558 1.40674 9.57376 0.31963 -0.712921 -0.624163 95 87 71
3.17597 1.34541 9.54225 0.0961003 -0.908965 -0.405645 111 102 87
3.18338 1.34384 9.54165 -0.102314 -0.476133 -0.873401 114 105 89
3.2076 1.34497 9.54272 0.093866 -0.666755 -0.739342 117 108 91
3.23892 1.32484 9.60168 -0.202319 -0.958023 -0.203123 111 103 85
3.25267 1.31119 9.5404 0.391407 -0.534422 -0.749129 120 112 94
3.27681 1.30691 9.61851 -0.822791 -0.52161 -0.225696 112 104 87
3.35396 1.24294 9.5267 -0.884177 -0.238125 -0.401904 113 105 88
3.3742 1.22861 9.57171 -0.73999 -0.652213 -0.164418 112 104 87
3.49619 1.17705 9.59312 -0.742043 -0.24002 -0.625909 108 100 84
3.52759 1.16646 9.65562 -0.869236 -0.253478 -0.424474 112 104 88
3.50437 1.16558 9.63159 -0.949344 -0.216841 -0.227434 109 101 85
3.62087 1.08549 9.60002 -0.201377 -0.94888 -0.24305 111 103 87
3.64646 1.06287 9.59781 -0.380102 -0.905586 -0.188244 111 103 87
3.64869 1.07272 9.56217 -0.286318 -0.920273 -0.266683 112 105 88
3.66955 1.04967 9.60594 -0.313308 -0.647185 -0.694975 110 103 87
3.63843 1.05052 9.51289 0.000460141 -0.944789 -0.327679 118 110 93
3.74797 0.991011 9.54646 -0.452804 -0.874057 -0.176047 112 105 90
3.7489 0.992845 9.5444 -0.542982 -0.824248 -0.160583 112 106 90
3.7597 0.959564 9.49852 -0.290693 -0.929931 -0.225223 100 95 80
3.75948 0.93335 9.41748 -0.0724074 -0.945109 -0.31863 96 90 77
3.80299 0.920069 9.43706 -0.0981245 -0.944974 -0.312084 95 91 79
3.80299 0.920069 9.43706 -0.0981245 -0.944974 -0.312084 95 91 79
3.80299 0.920069 9.43706 -0.0981245 -0.944974 -0.312084 95 91 79
3.9099 0.894102 9.52728 -0.411251 -0.75966 -0.503776 92 88 76
3.93021 0.870287 9.5176 -0.470557 -0.795358 -0.382077 100 96 83
1.87461 2.20859 9.56165 -0.229703 -0.967775 -0.10319 42 45 43
1.90531 2.21088 9.60573 -0.340417 -0.932223 -0.122789 71 73 66
1.89947 2.2015 9.57168 -0.202554 -0.974219 -0.0993461 63 66 59
1.92872 2.19455 9.5969 -0.321573 -0.939335 -0.119336 103 103 93
2.38363 1.89981 9.62996 -0.798355 -0.310543 -0.515939 108 101 87
2.53663 1.744 9.46375 0.0738288 -0.829396 -0.553762 96 88 73
2.55597 1.72463 9.46297 -0.282425 -0.420296 -0.862315 92 85 70
2.55842 1.74796 9.46477 -0.408867 -0.212292 -0.887559 83 75 60
2.58655 1.71491 9.45878 -0.244505 -0.299238 -0.92232 85 77 62
2.57353 1.73056 9.45133 -0.247028 -0.505121 -0.82694 82 74 59
2.60857 1.71699 9.45836 -0.125279 -0.704225 -0.698837 105 97 83
2.59992 1.69972 9.46747 -0.106354 -0.683781 -0.721895 109 101 86
2.61398 1.711 9.50185 -0.222478 -0.871511 -0.437003 110 103 87
2.62441 1.69964 9.44523 -0.0769291 -0.428338 -0.900338 111 103 87
2.65166 1.67151 9.43441 -0.0655116 -0.518686 -0.852451 104 96 79
2.64419 1.65742 9.45348 0.159558 -0.818854 -0.551379 110 102 85
2.66987 1.65539 9.47449 0.18774 -0.853451 -0.486184 109 101 84
2.70513 1.64827 9.49348 -0.160936 -0.974808 -0.154431 108 99 83
2.69011 1.64217 9.46318 0.211988 -0.860278 -0.463662 110 102 85
2.79479 1.59313 9.51384 -0.252694 -0.955314 -0.153367 108 100 83
2.80095 1.59594 9.53428 0.0342108 -0.978198 -0.204839 107 100 84
2.82481 1.58311 9.49148 -0.474119 -0.866353 -0.156984 110 103 86
2.84846 1.56538 9.51156 -0.176967 -0.969877 -0.167394 109 102 85
2.8749 1.55021 9.45601 -0.353637 -0.911128 -0.211628 105 98 81
2.87761 1.55559 9.53615 -0.33471 -0.899187 -0.281836 114 107 91
2.88773 1.54501 9.49451 -0.470535 -0.634596 -0.613095 109 101 86
2.89883 1.54174 9.5447 -0.443386 -0.728385 -0.522363 113 106 90
2.91599 1.52028 9.46025 -0.68879 -0.503978 -0.521128 108 101 85
2.96153 1.51322 9.5265 -0.8588 -0.338664 -0.384407 113 105 89
2.99025 1.48074 9.48822 -0.0315231 -0.976626 -0.21262 116 108 92
2.99443 1.48894 9.54319 -0.807991 -0.14906 -0.570027 120 112 96
3.01804 1.47634 9.55476 -0.600026 -0.386011 -0.700689 118 110 94
3.10484 1.41203 9.49993 0.256359 -0.654611 -0.711172 112 104 89
3.16721 1.37679 9.53095 0.214756 -0.484077 -0.848262 96 87 72
3.18121 1.3605 9.52168 -0.295587 -0.52037 -0.801151 103 94 78
3.23044 1.3355 9.55088 0.0733526 -0.744883 -0.663151 116 108 91
3.36176 1.25174 9.48832 -0.712597 -0.566056 -0.414471 117 109 93
3.4932 1.18351 9.5424 -0.932192 -0.015715 -0.361622 109 101 85
3.51441 1.14398 9.50517 -0.14224 -0.958874 -0.245619 110 104 86
3.54581 1.12708 9.51078 -0.242043 -0.945778 -0.216608 106 100 83
3.58195 1.12365 9.48999 -0.131555 -0.95779 -0.2556 109 102 85
3.58748 1.11864 9.54804 0.0579405 -0.931001 -0.360388 102 95 79
3.60968 1.10245 9.52893 -0.00819995 -0.949625 -0.31328 115 107 89
3.73567 0.993085 9.46659 -0.347611 -0.91614 -0.199636 111 105 89
3.7474 0.977565 9.39582 -0.294415 -0.930858 -0.216388 99 95 80
3.75727 0.968071 9.45022 -0.345022 -0.916427 -0.202785 97 93 78
3.77688 0.946781 9.44506 -0.262433 -0.929401 -0.259506 96 91 78
3.81271 0.924161 9.42986 -0.413861 -0.891566 -0.183928 87 84 72
3.817 0.957997 9.4477 -0.373173 -0.907541 -0.192646 94 90 77
3.9006 0.90894 9.47624 -0.497689 -0.829438 -0.253649 89 86 74
1.80508 2.19187 9.35769 0.624228 -0.75629 -0.195869 34 42 40
1.84116 2.27308 9.55199 -0.234062 -0.963539 -0.129642 36 41 40
1.84814 2.23857 9.54239 -0.0494592 -0.995542 -0.0803069 37 41 41
1.85042 2.25587 9.53371 -0.29466 -0.94597 -0.135342 37 40 38
1.87622 2.22166 9.54497 -0.50661 -0.84545 -0.168998 47 49 46
1.86596 2.24322 9.53337 -0.591215 -0.781922 -0.197643 46 48 45
1.90234 2.19949 9.54077 -0.340787 -0.93235 -0.120784 82 84 76
1.927 2.18232 9.52105 -0.0394497 -0.912239 -0.407756 106 106 95
1.9323 2.17595 9.5358 -0.176025 -0.965244 -0.19318 106 106 94
2.53888 1.76361 9.45372 -0.154275 -0.612598 -0.775192 93 86 71
2.53489 1.77232 9.41858 -0.118981 -0.81328 -0.569578 113 105 90
2.57366 1.74909 9.44083 -0.11708 -0.599215 -0.791981 109 101 86
2.55945 1.75161 9.41869 -0.565832 -0.79554 -0.216681 110 102 87
2.59662 1.73438 9.45505 -0.190365 -0.621622 -0.759834 100 92 77
2.62732 1.70576 9.42722 -0.0475828 -0.59415 -0.802945 112 104 89
2.67573 1.68933 9.45075 0.0409888 -0.450666 -0.891751 111 103 86
2.73279 1.64685 9.39837 -0.575036 -0.802773 -0.157764 117 109 92
2.87214 1.55959 9.42278 -0.42112 -0.782792 -0.458144 103 95 78
2.98853 1.46376 9.34339 -0.255433 -0.304515 -0.917619 79 72 56
3.00349 1.47483 9.45118 -0.533633 -0.786826 -0.310065 109 102 86
3.24218 1.3425 9.48231 -0.620033 -0.756985 -0.206237 97 89 72
3.37674 1.24525 9.45774 -0.642828 -0.723095 -0.252795 111 102 86
3.39719 1.24065 9.44158 -0.603916 -0.731986 -0.315408 119 110 94
3.43171 1.21422 9.44442 -0.838529 -0.48232 -0.253449 112 104 87
3.46278 1.18778 9.3902 -0.85444 -0.492024 -0.16687 117 109 92
3.46278 1.18778 9.3902 -0.85444 -0.492024 -0.16687 117 109 92
3.46278 1.18778 9.3902 -0.85444 -0.492024 -0.16687 117 109 92
3.48865 1.17358 9.43655 -0.918111 -0.346536 -0.192313 112 105 88
3.48865 1.17358 9.43655 -0.918111 -0.346536 -0.192313 112 105 88
3.50214 1.15999 9.40145 -0.676291 -0.72254 -0.143408 110 103 86
3.49505 1.17628 9.4412 -0.947201 -0.234837 -0.218316 114 106 89
3.52242 1.13778 9.36051 -0.355771 -0.914794 -0.191257 112 105 87
3.53008 1.13684 9.42601 -0.240497 -0.947748 -0.209609 106 99 83
3.5585 1.12569 9.39021 -0.329976 -0.92593 -0.183762 110 103 85
3.57665 1.13147 9.43485 -0.2252 -0.799119 -0.557399 112 105 87
3.58537 1.12073 9.47975 0.0119851 -0.948598 -0.316258 117 109 91
3.60421 1.11501 9.43095 -0.0805548 -0.957772 -0.276014 113 106 88
3.59578 1.11573 9.43148 -0.149882 -0.957239 -0.247445 112 105 87
3.59734 1.11078 9.45731 0.0571763 -0.93917 -0.33866 117 109 91
3.5935 1.1089 9.4037 -0.195276 -0.915812 -0.350934 112 105 88
3.70099 1.02093 9.36301 0.183354 -0.542989 -0.819478 113 105 88
3.68132 1.03505 9.36608 0.406019 -0.674743 -0.616337 121 112 94
3.72439 0.995309 9.3977 -0.27575 -0.891659 -0.359035 111 105 89
3.72032 1.00592 9.3552 0.261518 -0.590526 -0.76347 110 103 87
3.74196 0.987412 9.35019 0.00983401 -0.938598 -0.344872 105 99 84
3.74488 0.994782 9.35181 0.0202126 -0.929413 -0.368487 105 99 83
3.76371 0.961034 9.32589 -0.243709 -0.930663 -0.272897 102 98 85
3.76371 0.961034 9.32589 -0.243709 -0.930663 -0.272897 102 98 85
3.86471 0.915903 9.39232 -0.59736 -0.782034 -0.177718 84 81 69
1.88156 2.23218 9.49485 -0.597366 -0.77747 -0.19671 73 73 68
2.57096 1.75489 9.40857 -0.403814 0.0206169 -0.914609 112 104 89
2.61104 1.72654 9.33921 -0.768591 -0.601915 -0.216719 97 89 75
2.58706 1.74552 9.40448 -0.62789 -0.75879 -0.173183 114 106 91
2.64961 1.69976 9.32851 -0.431337 -0.85527 -0.287162 115 106 90
2.7059 1.67181 9.34532 -0.624628 -0.758449 -0.185999 112 104 87
2.70977 1.66129 9.38786 -0.51705 -0.841507 -0.156606 116 108 91
2.72486 1.65296 9.34971 -0.698848 -0.617376 -0.36119 108 99 83
2.74008 1.6449 9.39218 -0.358853 -0.922828 -0.140044 117 109 92
2.77044 1.63909 9.37941 -0.365599 -0.920595 -0.137269 117 109 92
2.7615 1.62379 9.33228 -0.707156 -0.660005 -0.253622 116 108 91
2.7944 1.60681 9.36654 -0.630529 -0.750848 -0.196623 113 105 88
2.88261 1.55641 9.33672 -0.463108 -0.851733 -0.245117 118 109 93
2.91865 1.53987 9.40981 -0.565893 -0.724664 -0.393228 95 87 72
3.03447 1.46417 9.37565 -0.721547 -0.564737 -0.400552 81 73 58
3.04985 1.46483 9.37564 0.0158382 -0.974789 -0.222567 92 85 69
3.05715 1.45053 9.39716 -0.374627 -0.593962 -0.711944 80 72 57
3.36844 1.27201 9.3971 -0.307359 -0.289711 -0.90642 95 86 70
3.44888 1.17548 9.33452 -0.948166 -0.230382 -0.218874 118 110 93
3.47631 1.19471 9.34312 -0.382818 -0.643836 -0.662515 116 107 91
3.47864 1.17981 9.36692 -0.905748 -0.380639 -0.186372 117 108 92
3.52396 1.15091 9.3299 -0.254846 -0.914438 -0.314416 116 108 91
3.51424 1.148 9.36001 -0.595256 -0.790629 -0.143447 111 104 86
3.55083 1.12807 9.33163 0.0859097 -0.939769 -0.330839 123 114 96
3.57765 1.1078 9.3165 -0.241846 -0.926251 -0.289085 117 110 91
3.59021 1.11747 9.36498 -0.336647 -0.924137 -0.180667 115 108 90
3.59984 1.09224 9.30931 -0.048048 -0.894977 -0.443517 120 113 95
3.59241 1.11879 9.3581 -0.185807 -0.955406 -0.229511 115 108 90
3.59984 1.09224 9.30931 -0.048048 -0.894977 -0.443517 120 113 95
3.59397 1.08863 9.29541 -0.124812 -0.909874 -0.395666 120 113 95
3.68083 1.0462 9.31027 -0.192127 -0.951402 -0.240671 124 116 99
3.71938 1.03299 9.3315 -0.217973 -0.948181 -0.23117 111 103 86
3.7323 0.994703 9.26905 0.101886 -0.915641 -0.388872 99 93 77
3.81269 0.952608 9.31673 -0.372433 -0.908917 -0.18752 54 50 38
3.84273 0.92627 9.31542 -0.85124 -0.433492 -0.295761 88 85 72
2.62633 1.72082 9.29639 -0.801301 -0.550797 -0.233534 108 99 85
2.6499 1.70958 9.30221 -0.451331 -0.839937 -0.30134 116 107 92
2.64252 1.70578 9.30508 -0.650406 -0.515309 -0.558058 114 105 91
2.66519 1.69202 9.25493 -0.628912 -0.75764 -0.174506 117 108 93
2.94799 1.51843 9.28458 -0.220096 -0.818572 -0.530563 118 110 95
2.97309 1.50617 9.31176 -0.474974 -0.865607 -0.158508 115 108 92
3.14658 1.41075 9.2874 -0.149224 -0.971596 -0.183667 117 109 91
3.32732 1.28965 9.31577 -0.500826 -0.853181 -0.145791 119 110 93
3.42966 1.2015 9.23325 -0.288694 -0.4809 -0.827883 97 89 71
3.43089 1.19248 9.27376 -0.308349 -0.429713 -0.848686 101 92 75
3.45138 1.18891 9.2491 -0.332821 -0.666541 -0.667048 107 97 80
3.48552 1.18902 9.29931 -0.426702 -0.846799 -0.317581 115 105 89
3.53737 1.16316 9.27697 -0.0680495 -0.762037 -0.643948 118 110 92
3.52211 1.16892 9.31175 -0.355725 -0.522573 -0.77484 114 106 88
3.54578 1.15081 9.32163 -0.123437 -0.828061 -0.54688 122 115 97
3.55242 1.14547 9.26088 -0.336175 -0.186423 -0.923165 119 111 93
3.58369 1.09342 9.20616 -0.544817 -0.515333 -0.661518 119 111 93
3.65835 1.08067 9.28334 -0.212546 -0.95136 -0.223021 111 103 86
3.68221 1.05801 9.27044 -0.25908 -0.943096 -0.208441 123 115 98
3.71081 1.03958 9.26742 -0.271347 -0.939912 -0.207211 117 109 93
3.7629 0.979519 9.2249 -0.302243 -0.930882 -0.205202 93 90 77
3.81098 0.96205 9.26325 -0.389379 -0.903971 -0.176692 65 62 49
3.84208 0.936197 9.26445 -0.524114 -0.79545 -0.304243 92 88 75
2.59757 1.75259 9.2674 -0.108656 -0.985345 -0.131489 88 81 66
2.89568 1.54398 9.21844 -0.487692 -0.86135 -0.142243 100 91 76
2.94002 1.52267 9.21055 0.00752168 -0.980046 -0.198627 115 106 90
2.94466 1.52734 9.25022 0.0862212 -0.971367 -0.221385 118 110 94
2.96101 1.52158 9.27324 -0.737836 -0.446747 -0.50598 119 110 95
3.05947 1.44718 9.22712 -0.859175 -0.436975 -0.266217 119 111 95
3.09064 1.43413 9.19244 -0.688316 -0.687151 -0.232475 115 107 90
3.11108 1.41893 9.20336 -0.625499 -0.748619 -0.219817 116 108 91
3.19177 1.37104 9.24115 -0.374166 -0.91297 -0.162742 113 106 88
3.35462 1.2686 9.24779 -0.830594 -0.44705 -0.332054 118 109 93
3.41919 1.21955 9.21733 -0.834154 -0.0641159 -0.547793 100 92 75
3.50839 1.18117 9.27169 -0.566077 -0.785158 -0.251165 115 106 88
3.52223 1.17434 9.23327 -0.488294 -0.786147 -0.378868 106 99 81
3.54203 1.12441 9.1748 -0.809054 0.103611 -0.57853 120 112 94
3.53154 1.14413 9.18007 -0.604065 -0.369506 -0.706095 119 111 93
3.55945 1.13536 9.21646 -0.596411 -0.398546 -0.696746 118 110 93
3.55322 1.11811 9.14627 -0.579011 -0.357359 -0.732831 115 107 89
3.57161 1.10358 9.16204 -0.409954 -0.611296 -0.676946 115 107 89
3.57601 1.10036 9.13002 -0.566245 -0.425879 -0.705687 110 102 84
3.61496 1.08547 9.15322 -0.468674 -0.81017 -0.352093 118 110 92
3.64385 1.07123 9.17462 -0.411121 -0.571374 -0.71029 119 111 94
3.67922 1.02856 9.15092 -0.214346 -0.950573 -0.224647 112 103 88
3.70117 1.04213 9.19902 -0.160413 -0.939374 -0.303058 108 100 85
3.72243 1.00803 9.15568 -0.327566 -0.92632 -0.186096 93 87 73
3.7585 0.98802 9.16664 -0.288091 -0.934463 -0.209242 85 82 69
3.80337 0.971661 9.19576 -0.313331 -0.928299 -0.200212 72 69 56
3.81534 0.961003 9.17672 -0.440919 -0.661008 -0.607173 90 87 73
3.85213 0.94761 9.20589 -0.389208 -0.779187 -0.491309 98 94 79
3.88246 0.896456 9.11209 -0.854999 -0.413522 -0.313014 94 89 73
3.8873 0.918164 9.18524 -0.825532 -0.126889 -0.549905 109 103 88
3.88587 0.916438 9.17825 -0.78948 -0.230359 -0.568907 108 102 87
1.71507 2.34124 9.2576 0.401298 -0.912258 -0.0821312 26 33 32
