ply
format ascii 1.0
element vertex 188
property float x
property float y
property float z
property float nx
property float ny
property float nz
property uchar diffuse_red
property uchar diffuse_green
property uchar diffuse_blue
end_header
11.7851 0.461003 64.2094 -0.659824 0.117859 -0.74212 41 41 35
11.8289 0.308329 64.2519 -0.725637 0.474503 -0.498294 38 38 36
11.7302 0.76622 64.5832 -0.390696 0.794144 -0.465501 42 42 35
11.7616 0.790143 64.4462 -0.273261 0.831877 -0.483021 44 44 38
11.7148 0.639288 64.2583 -0.500791 0.73498 -0.45718 41 41 35
11.7826 0.471025 64.1541 -0.757123 0.509915 -0.408351 39 39 34
11.9158 0.899793 64.5764 -0.268506 0.833111 -0.483561 41 40 34
11.8682 0.768829 64.0186 -0.395629 0.789671 -0.468933 43 43 36
11.8835 0.558931 63.7162 -0.74332 0.508101 -0.435096 43 43 37
11.9397 0.530053 63.9541 -0.798009 0.442112 -0.409535 39 40 36
11.9712 0.902579 64.5625 -0.258937 0.835416 -0.4848 40 39 32
11.9824 0.167922 62.6592 -0.261515 0.839657 -0.47601 40 40 33
12.0165 0.043993 62.484 -0.278449 0.836157 -0.472555 40 40 34
12.0361 0.954588 64.0301 -0.873425 -0.183744 -0.450962 41 40 34
12.0037 0.79994 63.8473 -0.674078 0.393976 -0.624821 42 42 34
12.2445 0.045435 62.4546 -0.830454 0.378883 -0.408405 39 39 33
12.2518 0.0476383 62.4651 -0.835412 0.367257 -0.408912 39 39 33
12.25 0.0440702 62.4538 -0.830332 0.379051 -0.408495 39 39 33
12.2687 -0.101921 62.1326 -0.82999 0.365453 -0.42138 39 39 32
12.1242 0.950779 63.2107 -0.56892 0.686005 -0.453571 40 39 31
12.1468 0.829194 63.163 -0.569423 0.689764 -0.447196 42 42 34
12.1371 0.811308 63.2644 -0.530352 0.717402 -0.451732 43 42 35
12.0569 0.842132 62.7012 -0.663271 0.605653 -0.439609 42 41 34
12.0881 0.58507 62.5655 -0.831227 -0.380017 -0.405768 40 40 35
12.3243 -0.151242 61.8624 -0.803395 0.420564 -0.421523 40 38 32
12.466 -0.387621 61.7391 -0.809573 0.411489 -0.418651 38 37 31
12.2883 1.22338 64.3765 -0.483627 0.74829 -0.454056 35 36 30
12.1446 0.974321 63.2062 -0.591457 0.671996 -0.445646 37 38 31
12.1476 1.03598 62.9822 -0.608555 0.657637 -0.444042 39 38 31
12.086 0.726726 62.5154 -0.248901 0.814571 -0.523949 43 42 35
12.2171 0.584864 62.5251 -0.315561 0.696835 -0.644083 47 46 39
12.3486 0.275699 62.5802 -0.833526 0.371663 -0.408779 48 46 41
12.3449 0.277217 62.4074 -0.838226 0.360283 -0.409356 47 46 41
12.3393 0.259858 62.2189 -0.420237 0.787338 -0.45111 48 46 40
12.3315 0.127081 61.9051 -0.845222 0.329318 -0.420891 46 45 38
12.3972 -0.0198014 61.9407 -0.810383 0.406898 -0.42156 43 42 36
12.4253 -0.103754 61.6248 -0.614755 0.171237 -0.769905 42 40 34
12.407 -0.170577 61.6161 -0.667987 0.608566 -0.428301 41 39 33
12.3669 -0.240484 61.152 -0.898649 0.130758 -0.418727 40 39 33
12.2751 0.970012 62.9261 -0.56543 0.63189 -0.530097 44 42 37
12.2657 0.962626 62.9032 -0.581679 0.664103 -0.469699 44 42 37
12.2477 0.821445 62.6775 -0.32532 0.0958688 -0.940732 46 45 40
12.2239 0.726535 62.4714 -0.00923385 0.494098 -0.869357 47 46 40
12.4378 0.507988 62.4546 -0.874635 0.269836 -0.402744 47 48 43
12.332 0.276908 61.5303 -0.627324 0.646085 -0.434787 49 48 42
12.2838 0.0230655 61.2835 -0.738005 -0.504625 -0.447998 44 43 38
12.3551 1.28429 63.6328 -0.817186 0.398169 -0.416735 37 39 32
12.3538 1.28407 63.6237 -0.809541 0.412347 -0.417867 37 39 32
12.2665 1.11465 62.9196 -0.607485 0.65823 -0.44463 41 40 33
12.2732 1.12303 62.97 -0.609008 0.657108 -0.444206 41 40 33
12.2876 1.12526 63.0697 -0.603895 0.661687 -0.444388 41 40 33
12.3672 1.08997 62.7946 -0.6454 0.588548 -0.4869 42 40 35
12.4165 0.967261 62.7237 -0.406029 0.231318 -0.8841 43 42 37
12.4734 0.845753 62.6894 -0.493019 0.0241039 -0.869685 46 45 39
12.3103 0.841798 62.5342 -0.213051 0.284586 -0.934676 48 47 42
12.3129 0.842435 62.5346 -0.197219 0.282186 -0.93887 48 47 42
12.334 0.726089 62.3414 -0.66227 0.60921 -0.43619 49 49 43
12.3219 0.726692 62.2822 -0.661944 0.609633 -0.436095 49 49 43
12.3748 0.206908 60.9996 -0.853909 0.329165 -0.4031 48 48 46
12.3748 0.206908 60.9996 -0.853909 0.329165 -0.4031 48 48 46
12.5059 -0.105341 60.996 -0.481478 0.675727 -0.558186 47 46 39
12.5715 1.47602 63.8721 -0.821238 0.378079 -0.427346 44 44 37
12.5554 1.32053 63.7353 -0.664806 0.603589 -0.440129 42 41 34
12.4671 1.15212 63.1079 -0.637591 0.631784 -0.440825 41 40 33
12.4886 1.15353 63.179 -0.637074 0.631087 -0.442568 40 39 34
12.4984 1.08978 62.7472 -0.472529 0.101203 -0.875485 41 39 33
12.4217 0.968487 62.7325 -0.416459 0.248897 -0.874421 43 42 37
12.4771 0.846504 62.6937 -0.458378 0.0306424 -0.888229 46 45 38
12.5351 0.66102 62.4113 -0.860109 0.288561 -0.420649 51 50 42
12.5141 0.724021 62.3668 -0.894863 0.146931 -0.421464 49 48 42
12.5214 0.719423 62.4823 -0.861072 0.285139 -0.421012 50 49 42
12.4489 0.303553 61.0454 -0.474317 0.756649 -0.450007 51 50 45
12.4481 0.300589 61.0378 -0.480729 0.755079 -0.44582 50 48 44
12.4578 0.168674 60.9209 -0.359613 0.81045 -0.462439 49 48 44
12.4822 0.0326253 60.9598 -0.484524 0.752585 -0.445929 49 47 42
12.6156 1.1678 62.8562 -0.685644 0.58315 -0.435694 40 39 33
12.5548 0.968178 62.7088 -0.558999 0.454842 -0.693281 40 40 33
12.6808 0.746538 62.4488 -0.868407 0.264817 -0.419216 44 44 37
12.4594 0.547522 61.3689 -0.334242 0.818761 -0.466812 50 49 43
12.4581 0.547012 61.3493 -0.314057 0.823583 -0.472314 51 51 44
12.4597 0.546738 61.3675 -0.396459 0.793203 -0.462223 51 51 44
12.4597 0.546738 61.3675 -0.396459 0.793203 -0.462223 51 51 44
12.628 0.293073 61.1248 -0.533463 0.721363 -0.441647 47 45 39
12.6797 1.54679 63.4612 -0.839865 0.337894 -0.4248 46 46 39
12.6749 1.48157 63.3135 -0.614034 0.650783 -0.44659 45 45 38
12.6811 1.33063 63.3244 -0.618924 0.64896 -0.442475 41 40 33
12.6161 1.1584 62.7036 -0.820457 0.382733 -0.424696 40 39 33
12.6291 1.13875 62.5572 -0.78701 0.445315 -0.426977 40 39 33
12.654 1.00061 62.5395 -0.802124 0.419614 -0.424878 38 38 31
12.7171 0.813117 62.4208 -0.889333 0.184455 -0.418405 40 40 33
12.6801 0.691681 61.81 -0.484473 0.749041 -0.451912 47 47 39
12.6493 0.570431 61.2683 -0.477897 0.753273 -0.451879 49 47 39
12.6712 0.441569 61.2965 -0.52039 0.728953 -0.444772 45 44 37
12.6683 0.317051 61.0511 -0.567626 0.697609 -0.4372 45 43 37
12.7052 0.360139 61.0726 -0.538964 0.717386 -0.441447 43 41 35
12.695 0.169515 61.0287 -0.65808 0.618536 -0.429354 44 42 37
12.7044 1.63865 63.5396 -0.802295 0.435253 -0.408507 42 44 37
12.7915 1.23271 62.8185 -0.745503 0.509611 -0.429561 37 38 30
12.7904 1.24105 62.7099 -0.792543 0.436662 -0.425679 37 38 30
12.751 1.05407 62.2505 -0.887976 0.191643 -0.418056 37 37 30
12.7822 1.36168 62.7756 -0.714106 0.54987 -0.433239 40 39 32
12.789 1.35552 62.6802 -0.753714 0.497372 -0.429577 40 39 31
12.8087 0.917098 62.0151 -0.871502 0.256737 -0.417817 37 38 30
12.825 0.436088 61.0966 -0.520936 0.729116 -0.443865 39 38 31
12.8366 0.34595 60.7205 -0.519123 0.73127 -0.442443 36 35 29
12.7619 1.28695 61.9192 -0.885316 0.235315 -0.401052 37 38 32
12.7743 1.1363 61.353 -0.905153 0.158494 -0.394434 35 37 31
12.7757 0.853376 60.9163 -0.469294 0.751713 -0.463347 36 37 29
12.7781 0.726875 60.7301 -0.375071 0.801817 -0.4652 40 39 31
12.8172 0.994533 61.1183 -0.854723 0.328519 -0.4019 34 36 30
12.9444 0.620319 60.5828 -0.79081 0.445562 -0.419637 38 37 30
12.9401 0.355566 60.2232 -0.422329 0.784479 -0.454127 40 40 34
13.0059 1.0495 61.1597 -0.642512 0.633021 -0.431812 39 40 31
12.9847 0.87614 60.7973 -0.719657 0.54797 -0.426407 41 42 33
12.9511 0.622427 60.2287 -0.432571 0.778032 -0.455574 39 38 29
12.9526 0.507868 60.0723 -0.516341 0.732618 -0.443468 40 40 33
2.60027 -0.819652 9.06621 0.727178 0.334782 -0.599278 160 154 139
2.56771 -0.760427 9.0446 0.742876 -0.0407131 -0.66819 167 160 145
2.60928 -0.788938 9.1222 0.747256 0.266676 -0.608681 142 137 124
2.6309 -0.822435 9.12 0.568801 0.362956 -0.738057 142 137 125
2.57062 -0.715097 9.06719 0.744592 -0.134578 -0.653814 151 145 131
2.56929 -0.716857 9.05776 0.730453 -0.150917 -0.666081 153 146 132
2.5943 -0.74116 9.09989 0.768249 -0.0718663 -0.636104 144 138 125
2.64151 -0.792082 9.14607 0.320305 0.142117 -0.936594 137 135 123
2.48189 -0.53448 9.03025 0.718215 -0.295744 -0.629843 192 184 164
2.50176 -0.562396 9.01219 0.776154 -0.0541871 -0.62821 157 147 127
2.50119 -0.564498 9.00723 0.761114 -0.149477 -0.63116 158 148 128
2.51522 -0.591889 9.02602 0.698056 -0.273186 -0.661883 156 146 126
2.51481 -0.593622 9.02015 0.69163 -0.267942 -0.670712 157 147 126
2.53664 -0.616305 9.0267 0.662993 -0.170652 -0.728916 166 159 141
2.53559 -0.619118 9.02518 0.683235 -0.184456 -0.706517 168 160 142
2.55595 -0.645374 9.05357 0.744918 -0.198598 -0.636912 142 138 125
2.55592 -0.647403 9.04907 0.750585 -0.177334 -0.636533 142 139 125
2.57923 -0.669444 9.06034 0.710876 -0.120007 -0.693004 139 135 123
2.57774 -0.673554 9.06763 0.72716 -0.143183 -0.671369 139 135 124
2.48412 -0.53328 9.01755 0.732331 -0.257597 -0.630345 191 182 163
2.60015 -0.692354 9.07761 0.601686 -0.097228 -0.792793 139 135 125
2.48351 -0.483788 8.90276 0.711407 -0.311527 -0.629961 162 150 132
2.48114 -0.48488 8.94985 0.751973 -0.19454 -0.629834 161 150 131
2.49713 -0.512794 8.96057 0.75226 -0.188246 -0.631402 148 138 120
2.4988 -0.514677 8.93288 0.723545 -0.27792 -0.631857 148 138 120
2.5457 -0.578042 9.04305 0.67114 -0.0717363 -0.737852 139 135 122
2.56874 -0.599174 9.0433 0.469691 -0.181767 -0.863916 101 96 85
2.56772 -0.600536 9.03412 0.502745 -0.13834 -0.853294 101 96 85
2.58438 -0.62921 9.09139 0.525914 -0.239026 -0.81626 101 97 87
2.585 -0.631311 9.08839 0.528859 -0.220882 -0.819463 101 97 87
2.48598 -0.460814 8.8148 0.751296 0.0524579 -0.657877 155 146 127
13.9235 -7.41091 44.4668 -0.887583 0.264214 -0.377344 35 38 33
13.9285 -7.41291 44.4644 -0.88092 0.290073 -0.373949 35 38 33
13.9285 -7.41291 44.4644 -0.88092 0.290073 -0.373949 35 37 33
13.9235 -7.41091 44.4668 -0.887583 0.264214 -0.377344 35 36 33
13.9235 -7.41091 44.4668 -0.887583 0.264214 -0.377344 35 36 33
11.9857 0.656272 63.8445 -0.552569 0.668512 -0.497754 47 47 39
13.9307 -7.39054 44.3708 -0.546695 0.721263 -0.425329 35 38 33
14.0394 -7.09224 44.3433 -0.459272 0.821002 -0.339153 37 38 35
14.0629 -7.1896 44.3085 -0.4818 0.809112 -0.336463 36 38 34
14.0351 -7.24348 44.0936 -0.394115 0.853256 -0.341508 36 39 34
14.0334 -7.23619 44.08 -0.451112 0.826237 -0.337387 36 39 34
12.2746 1.12609 64.2737 -0.58362 0.684158 -0.437396 39 39 32
12.198 1.10961 63.765 -0.63138 0.636462 -0.44303 40 40 33
14.0651 -6.91172 44.6325 -0.631989 0.697452 -0.337862 38 39 36
14.0602 -6.97721 44.4277 -0.3897 0.85354 -0.345838 39 39 37
14.1604 -6.9557 44.1978 -0.46633 0.81701 -0.339162 38 39 37
14.1675 -7.0369 44.0696 -0.496097 0.800647 -0.335936 38 40 36
14.194 -7.13659 44.0826 -0.517731 0.787879 -0.333471 36 39 34
14.1803 -6.75908 44.478 -0.408436 0.844526 -0.346348 40 41 39
14.193 -6.84328 44.27 -0.558719 0.758643 -0.335104 41 41 39
14.3091 -7.13435 43.9572 -0.50143 0.798435 -0.333272 56 58 55
12.8406 0.206469 61.0386 -0.442532 0.775069 -0.451036 38 36 30
14.1853 -6.68112 44.5585 -0.45021 0.823901 -0.344238 40 41 39
14.1807 -6.75027 44.333 -0.438712 0.830263 -0.343794 41 42 40
14.312 -6.7711 44.4559 -0.513959 0.788386 -0.338074 47 49 46
14.3165 -6.84342 44.2094 -0.511686 0.79041 -0.336793 56 58 56
14.3226 -7.00718 44.0207 -0.562477 0.756724 -0.33315 54 56 52
12.8616 0.244827 60.9697 -0.731301 -0.4807 -0.483866 36 34 28
14.3528 -6.58526 44.7283 -0.451387 0.823002 -0.344845 45 47 44
14.3622 -6.66985 44.613 -0.512873 0.788583 -0.339262 45 47 44
14.346 -6.73735 44.3355 -0.596008 0.729511 -0.335541 47 49 46
14.426 -6.98954 43.8275 -0.410711 0.845764 -0.340589 78 81 78
14.08 -6.85921 44.9552 -0.492465 0.790393 -0.364357 41 40 37
14.1539 -7.24493 43.9955 -0.530543 0.746929 -0.400776 40 41 36
12.4316 0.431505 62.132 -0.869316 0.260086 -0.420293 56 53 46
13.9257 -7.31146 44.3238 -0.433886 0.669666 -0.602736 40 41 36
12.3473 -0.252744 62.3332 -0.834702 0.356106 -0.420074 43 41 32
12.3268 -0.242052 62.2906 -0.840052 0.343353 -0.420026 43 41 33
12.3473 -0.252744 62.3332 -0.834702 0.356106 -0.420074 43 41 32
12.0364 0.677206 63.9086 -0.894292 0.110355 -0.433664 48 47 37
11.9923 0.668454 63.7622 -0.510575 0.730261 -0.453907 48 47 37
