ply
format ascii 1.0
element vertex 725
property float x
property float y
property float z
property float nx
property float ny
property float nz
property uchar diffuse_red
property uchar diffuse_green
property uchar diffuse_blue
end_header
-1.06923 0.895433 7.32386 0.795019 -0.314615 -0.518615 119 118 114
-1.06851 0.885415 7.32875 0.669904 -0.428894 -0.606036 127 126 121
-1.06795 0.874995 7.33374 0.819425 -0.224978 -0.527187 107 105 100
-1.06617 0.876745 7.33793 0.846721 -0.316272 -0.427827 113 111 106
-1.07005 0.878926 7.34793 0.628101 -0.610945 -0.481909 110 108 103
-1.00724 0.898256 7.26173 -0.43042 -0.645629 -0.630795 115 118 119
-0.992127 0.90747 7.20618 -0.345898 -0.738808 -0.578375 99 100 103
-0.885531 0.928163 7.09231 0.105521 -0.918159 -0.381902 124 126 129
-0.866118 0.934284 7.10439 -0.425348 -0.771773 -0.472701 158 159 164
-0.847987 0.933412 7.07209 0.0328434 -0.732742 -0.679714 118 119 121
-0.827758 0.947465 7.05718 -0.410676 -0.77789 -0.475639 141 143 145
-0.822743 0.947101 7.02189 0.177681 -0.908369 -0.378543 124 125 127
-0.815369 0.943798 7.06127 -0.166063 -0.917415 -0.361627 128 129 129
-0.771813 0.96848 6.99989 -0.417996 -0.735976 -0.53256 148 149 150
-0.739563 0.976614 6.94415 0.113701 -0.861652 -0.494598 149 150 151
-0.7456 0.973285 6.96454 -0.184038 -0.820941 -0.540542 151 152 153
-0.723921 0.977463 6.91848 0.221908 -0.927391 -0.301169 147 148 149
-0.677353 0.994408 6.91411 -0.482826 -0.475801 -0.735182 158 159 159
-0.680904 1.00667 6.92955 0.395836 -0.757844 -0.518638 178 179 180
-0.688011 0.993423 6.90546 0.430484 -0.853944 -0.292341 153 153 154
-0.663609 1.00086 6.88307 -0.420227 -0.456724 -0.7841 168 169 170
-0.666192 1.00587 6.88973 0.222533 -0.928594 -0.296973 160 160 161
-0.643487 1.01603 6.87938 -0.290565 -0.498216 -0.816917 170 170 172
-0.6327 1.00198 6.87355 -0.679051 -0.354543 -0.642798 191 192 194
-0.648453 1.00343 6.88587 -0.439078 -0.491542 -0.752062 171 172 173
-0.627098 1.01314 6.86035 -0.414787 -0.490833 -0.766182 171 172 173
-0.61995 1.02686 6.87481 -0.158409 -0.772607 -0.614805 164 165 165
-0.630181 1.01995 6.8728 -0.208947 -0.419896 -0.883192 169 170 171
-0.606124 1.0201 6.8798 -0.331783 -0.874301 -0.354285 158 159 159
-0.526382 1.08777 6.94676 -0.212343 -0.624239 -0.751822 176 178 178
-0.537265 1.0752 6.93105 0.542818 -0.784615 -0.299546 156 158 156
-0.514576 1.09174 6.94025 0.362753 -0.538516 -0.760533 150 152 152
-0.492347 1.10655 6.921 -0.196505 -0.788622 -0.582634 171 172 173
-0.475338 1.10326 6.91286 0.354724 -0.834065 -0.4225 152 153 154
-0.372456 1.1471 6.86008 -0.501045 -0.688257 -0.524648 164 166 167
-0.315275 1.17943 6.8099 0.555175 -0.779937 -0.288926 142 145 144
-0.313124 1.18077 6.78863 0.478538 -0.810838 -0.336961 163 165 167
-0.324874 1.17327 6.79481 0.48752 -0.821244 -0.29645 143 146 145
-0.285862 1.18548 6.81799 0.244302 -0.9288 -0.278651 141 144 145
-0.29895 1.18049 6.79307 0.343805 -0.895347 -0.28311 145 148 148
-0.297527 1.18289 6.77395 -0.128685 -0.902326 -0.411398 163 165 167
-0.285746 1.18896 6.79794 0.315031 -0.906216 -0.282006 141 144 145
-0.285662 1.19278 6.77961 0.346964 -0.894594 -0.281634 142 145 147
-0.272792 1.19475 6.78923 0.188724 -0.943039 -0.273973 146 151 153
-0.254008 1.2022 6.80632 -0.210285 -0.935534 -0.283823 152 157 160
-0.262014 1.19458 6.7733 0.569666 -0.767229 -0.294687 138 142 144
-0.25811 1.20116 6.75688 0.416104 -0.868187 -0.270385 134 139 140
-0.229458 1.20547 6.76614 0.0144952 -0.962645 -0.270377 128 134 137
-0.229467 1.21016 6.75066 -0.0193686 -0.962977 -0.268885 139 145 148
-0.214991 1.20868 6.76107 0.00911768 -0.957158 -0.289424 123 128 131
-0.213643 1.20982 6.73834 -0.237404 -0.93052 -0.278876 137 142 145
-0.20079 1.21381 6.73726 -0.0427691 -0.723893 -0.688585 152 156 161
-0.200714 1.21974 6.71843 0.136183 -0.947715 -0.288601 157 161 165
-0.190092 1.21732 6.73086 0.150492 -0.939529 -0.307631 153 156 161
-0.177146 1.22086 6.7217 0.0171035 -0.957927 -0.286502 139 143 148
-0.187528 1.22368 6.71154 0.0680576 -0.93246 -0.354806 153 157 162
-0.177136 1.22443 6.70273 0.151146 -0.945553 -0.288243 147 151 156
-0.129387 1.21945 6.60767 0.429745 -0.810534 -0.397938 135 138 143
-0.0723408 1.22628 6.48134 0.10322 -0.938351 -0.329914 136 138 141
-0.0586452 1.23529 6.46343 -0.104925 -0.963037 -0.248093 133 136 141
-0.0586452 1.23529 6.46343 -0.104925 -0.963037 -0.248093 130 132 136
-0.0404301 1.23113 6.43147 0.575882 -0.586534 -0.569507 133 136 141
-0.0345247 1.23781 6.45234 0.593554 -0.589736 -0.547636 170 175 181
-0.0459631 1.24174 6.47525 -0.702147 -0.58699 -0.403028 154 158 163
-0.0345247 1.23781 6.45234 0.593554 -0.589736 -0.547636 163 168 173
-0.0459631 1.24174 6.47525 -0.702147 -0.58699 -0.403028 154 158 163
-0.0133417 1.25119 6.42244 0.636648 -0.680151 -0.363419 153 157 161
-0.00422442 1.25056 6.42697 0.375638 -0.882754 -0.282206 154 157 161
0.0402451 1.26309 6.35054 0.193875 -0.952523 -0.234758 128 132 133
0.0546635 1.27275 6.36169 0.131715 -0.953544 -0.270932 146 150 153
0.0548445 1.26981 6.38175 0.259506 -0.929244 -0.262986 144 149 152
0.0681073 1.27585 6.35377 0.125921 -0.954618 -0.269905 149 152 156
0.091174 1.27859 6.30394 -0.178413 -0.897891 -0.402442 159 161 165
0.0913876 1.27412 6.32144 -0.00921792 -0.965829 -0.259015 136 139 143
0.104322 1.27936 6.32768 0.168919 -0.93604 -0.3087 158 160 164
0.104599 1.28234 6.30499 0.281461 -0.855918 -0.433802 160 162 165
0.117255 1.28384 6.32118 0.159835 -0.911303 -0.379447 159 161 164
0.117009 1.28823 6.30421 0.288261 -0.862913 -0.415074 163 165 168
0.116089 1.28933 6.30401 0.300091 -0.861471 -0.409649 164 166 168
0.129791 1.29011 6.32177 0.149998 -0.901649 -0.405623 164 165 169
0.128403 1.29422 6.29917 0.462596 -0.779905 -0.421609 164 165 167
0.126932 1.29308 6.29031 0.502443 -0.753622 -0.423799 162 163 166
0.129596 1.29499 6.30617 0.218029 -0.902479 -0.371476 165 166 168
0.142481 1.29785 6.32809 0.262383 -0.921694 -0.28572 170 171 173
0.13892 1.30154 6.29235 0.439849 -0.790862 -0.425523 165 166 168
0.142253 1.30154 6.30987 0.216367 -0.935909 -0.277955 169 169 171
0.150219 1.30452 6.30686 0.239299 -0.928643 -0.283474 170 170 172
0.155112 1.30202 6.31618 0.239155 -0.929247 -0.281611 173 174 176
0.163246 1.3056 6.31616 0.33948 -0.891801 -0.299071 175 176 178
0.158128 1.3076 6.29194 0.359256 -0.826297 -0.433783 180 180 182
0.169208 1.30823 6.30012 0.465752 -0.737902 -0.488442 183 183 186
0.179126 1.31453 6.29083 0.586324 -0.723884 -0.363616 174 173 176
0.194059 1.3179 6.29154 0.277345 -0.924367 -0.261966 166 167 168
0.182348 1.32085 6.27411 0.51192 -0.789479 -0.338617 174 175 177
0.20746 1.32635 6.29314 0.281056 -0.916829 -0.283606 168 169 169
0.207178 1.33002 6.2749 0.392561 -0.866391 -0.308646 176 177 178
0.215394 1.332 6.3068 0.3137 -0.620418 -0.7188 175 175 176
0.220207 1.33408 6.29023 0.341204 -0.891322 -0.298539 171 171 172
0.224092 1.34106 6.27435 0.389039 -0.868357 -0.307578 180 181 181
0.233193 1.34159 6.28776 0.502627 -0.794959 -0.339714 181 182 182
0.237208 1.34914 6.27358 0.504132 -0.794314 -0.338993 208 209 210
0.233608 1.34391 6.29401 0.472515 -0.816928 -0.330693 181 182 182
0.246314 1.35006 6.31309 0.48491 -0.815831 -0.315092 190 192 191
0.264791 1.36361 6.30826 0.544214 -0.757038 -0.361558 199 199 202
0.254507 1.35664 6.31436 0.554674 -0.751023 -0.358191 203 204 205
0.254035 1.35432 6.30292 0.507049 -0.790952 -0.342485 206 207 208
0.253747 1.35697 6.3136 0.516631 -0.783389 -0.345533 205 206 207
0.242826 1.35974 6.28216 0.484859 -0.817274 -0.311408 199 200 200
0.275691 1.37302 6.31022 0.548433 -0.756359 -0.356571 166 167 171
0.267499 1.36959 6.28705 0.463148 -0.823342 -0.328028 193 194 197
0.261784 1.36877 6.27418 0.448639 -0.841591 -0.300745 190 192 193
0.285267 1.38046 6.31254 0.594637 -0.711463 -0.374469 157 159 163
0.293563 1.38756 6.31077 0.614311 -0.689918 -0.38293 158 159 165
0.280037 1.38089 6.28516 0.572748 -0.734419 -0.364126 183 185 189
0.304067 1.38734 6.32236 0.411633 -0.629255 -0.659239 121 122 128
0.310924 1.39706 6.31439 0.454391 -0.712438 -0.534754 128 129 136
0.303703 1.39549 6.31015 0.581251 -0.724869 -0.369746 147 148 154
0.293461 1.39256 6.2912 0.558219 -0.747955 -0.359102 170 171 176
0.310684 1.40459 6.30121 0.529354 -0.772834 -0.350016 162 163 169
0.320831 1.40347 6.30595 0.422509 -0.831141 -0.361511 136 137 145
0.32045 1.40162 6.30868 0.382677 -0.817249 -0.430886 127 129 136
0.321148 1.4105 6.29479 0.385942 -0.870399 -0.305701 160 162 168
0.330514 1.4058 6.30389 0.380714 -0.828084 -0.411501 137 138 145
0.33277 1.41153 6.30084 0.236874 -0.88003 -0.411629 152 153 159
0.341891 1.41259 6.29752 0.307281 -0.795911 -0.521636 153 155 160
0.342001 1.42017 6.2875 0.357883 -0.83321 -0.421523 146 148 152
0.352408 1.41804 6.2908 0.0857916 -0.885333 -0.456975 160 162 166
0.352292 1.42373 6.27803 0.139633 -0.939496 -0.312809 154 156 160
0.363574 1.41516 6.29508 0.0726811 -0.910713 -0.406594 165 166 170
0.363647 1.42144 6.28398 0.0788608 -0.915603 -0.394275 168 169 174
0.364591 1.42801 6.29161 0.49132 -0.680481 -0.543646 167 169 173
0.390751 1.42767 6.2823 0.0277235 -0.876031 -0.481456 154 155 160
0.379554 1.43051 6.27647 -0.0439632 -0.876073 -0.480171 168 169 173
0.390611 1.43291 6.26987 0.135038 -0.922149 -0.3625 159 161 165
0.401082 1.42974 6.2683 0.0772434 -0.949776 -0.303246 158 159 165
0.390774 1.43752 6.25502 -0.0294857 -0.948238 -0.316189 155 156 160
0.427073 1.44467 6.26749 0.231058 -0.917325 -0.324234 196 197 202
0.409839 1.44076 6.24605 0.124952 -0.960992 -0.246743 156 157 162
0.440257 1.45186 6.27096 0.10487 -0.915851 -0.387581 201 202 207
0.427135 1.45107 6.25028 0.270946 -0.919512 -0.284756 183 185 189
0.456575 1.46527 6.26152 0.254466 -0.927746 -0.273012 188 190 194
0.456365 1.46913 6.24498 0.269218 -0.922925 -0.275193 188 189 193
0.469816 1.47112 6.25588 0.240416 -0.932489 -0.269562 163 164 169
0.480376 1.47523 6.24899 -0.131516 -0.969844 -0.205197 169 171 176
0.469265 1.47462 6.238 0.209398 -0.949498 -0.233677 179 181 185
0.488713 1.47971 6.2313 0.198887 -0.952406 -0.231012 169 171 175
0.493123 1.4829 6.24559 0.40038 -0.860845 -0.314072 168 169 174
0.519416 1.48895 6.24028 0.106248 -0.94581 -0.306846 157 159 163
0.507589 1.4869 6.24932 0.12515 -0.934619 -0.332902 164 165 170
0.504358 1.48441 6.21733 0.243329 -0.93213 -0.268188 169 171 175
0.519956 1.49379 6.22684 0.0751052 -0.940323 -0.331892 161 163 168
0.531319 1.49544 6.21801 0.0477751 -0.97234 -0.228631 167 168 173
0.529548 1.49605 6.18811 0.00501269 -0.97641 -0.215868 178 180 185
0.552451 1.5008 6.19066 0.163242 -0.961815 -0.219689 128 129 134
0.553127 1.50705 6.17301 0.0183431 -0.934776 -0.354764 144 146 150
0.567295 1.5056 6.18219 0.140848 -0.888912 -0.435888 132 133 138
0.566928 1.51201 6.16542 0.205987 -0.894835 -0.39603 128 129 134
0.58804 1.51388 6.16481 0.33984 -0.900317 -0.271917 155 157 161
0.579957 1.51161 6.18091 0.160769 -0.962213 -0.21977 145 146 150
0.602358 1.52358 6.16936 0.161174 -0.790793 -0.590483 157 158 163
0.610329 1.52346 6.14573 -0.754338 -0.542184 -0.37015 178 179 183
0.623415 1.52455 6.14376 -0.290205 -0.678776 -0.67457 181 182 186
0.6316 1.52544 6.13751 -0.569154 -0.597173 -0.565197 182 183 187
0.621265 1.52959 6.12235 0.0909969 -0.967636 -0.235372 179 180 184
0.6316 1.52544 6.13751 -0.569154 -0.597173 -0.565197 182 183 187
0.6316 1.52544 6.13751 -0.569154 -0.597173 -0.565197 182 183 187
0.643246 1.53875 6.10792 -0.0864282 -0.939712 -0.330864 180 181 184
0.664087 1.55226 6.13473 -0.0810968 -0.910492 -0.405497 184 185 187
0.662737 1.55594 6.11327 0.189327 -0.961979 -0.196855 167 167 170
0.680359 1.55961 6.13979 0.574438 -0.7302 -0.369904 169 169 173
0.687969 1.56113 6.11393 0.639332 -0.628409 -0.443121 185 186 189
0.691066 1.57191 6.11091 0.166887 -0.950018 -0.263847 193 193 196
0.707852 1.57336 6.1242 0.13456 -0.913982 -0.382792 171 172 176
0.713063 1.57742 6.13101 0.636569 -0.633289 -0.440142 159 160 163
0.720437 1.58013 6.11886 -0.308371 -0.936974 -0.164275 175 176 180
0.718657 1.58519 6.09757 -0.398226 -0.762506 -0.509902 185 186 188
0.718657 1.58519 6.09757 -0.398226 -0.762506 -0.509902 185 186 188
0.741915 1.60525 6.14628 -0.122823 -0.808052 -0.576164 185 186 189
0.756479 1.60488 6.15595 0.522337 -0.636049 -0.567983 183 184 188
0.753108 1.60993 6.13215 -0.34734 -0.923676 -0.161796 177 177 182
0.741303 1.60211 6.1326 -0.344728 -0.868171 -0.356988 188 189 192
0.741021 1.60195 6.12763 -0.218494 -0.934891 -0.279714 183 184 187
0.758506 1.61899 6.14564 0.63935 -0.586335 -0.497436 167 168 171
0.747573 1.58957 6.07739 0.161446 -0.944084 -0.287474 181 182 186
0.771492 1.60492 6.12441 0.256311 -0.927197 -0.273148 181 182 186
0.788808 1.62025 6.13904 0.565997 -0.705476 -0.426557 183 184 188
0.769103 1.60758 6.09334 0.311258 -0.906906 -0.283971 179 179 183
0.768322 1.60655 6.08609 0.23631 -0.948993 -0.208733 164 165 169
0.782453 1.6143 6.07371 0.220104 -0.949568 -0.223328 174 174 178
0.803092 1.62661 6.10729 0.46302 -0.814193 -0.350289 185 185 189
0.829516 1.63497 6.10757 0.575278 -0.703627 -0.41709 190 191 194
0.806747 1.6188 6.04781 0.630007 -0.629474 -0.454811 188 189 191
0.846042 1.64267 6.0981 0.42218 -0.841327 -0.33754 188 189 191
0.833283 1.62922 6.02862 -0.210167 -0.850737 -0.481743 198 199 200
0.856161 1.65326 6.08616 0.427825 -0.839322 -0.335417 187 188 190
0.840232 1.64437 6.08305 0.360584 -0.881721 -0.304216 189 190 191
0.873043 1.66453 6.0987 0.496246 -0.784462 -0.371968 182 183 185
0.884157 1.67195 6.08158 0.115933 -0.969831 -0.214448 178 180 179
0.886844 1.66688 6.09917 0.300325 -0.500045 -0.812256 174 175 176
0.88928 1.67827 6.07699 0.431815 -0.833734 -0.344127 187 188 188
0.908692 1.69227 6.08867 0.413565 -0.729543 -0.54473 180 181 182
0.935167 1.69677 6.09404 -0.211979 -0.932957 -0.290957 181 182 184
0.953284 1.70044 6.08751 0.41098 -0.856498 -0.31226 169 170 173
0.936535 1.6967 6.07376 0.467488 -0.716977 -0.517107 179 180 181
0.95327 1.7085 6.06788 0.436406 -0.831682 -0.343298 182 183 186
0.969196 1.71897 6.05885 0.434919 -0.832656 -0.342826 173 174 177
0.969807 1.71183 6.08068 0.453923 -0.82454 -0.337767 160 160 164
0.985485 1.72193 6.07079 0.342677 -0.897627 -0.277197 163 164 167
0.994829 1.72919 6.05988 -0.0579576 -0.856448 -0.51297 172 173 176
1.01136 1.72984 6.07814 0.471727 -0.800869 -0.368894 180 180 184
1.02711 1.74115 6.06831 0.674344 -0.49769 -0.545494 180 180 184
1.02746 1.73452 6.04689 -0.26735 -0.884391 -0.382592 175 175 179
1.02746 1.73452 6.04689 -0.26735 -0.884391 -0.382592 175 175 179
1.02746 1.73452 6.04689 -0.26735 -0.884391 -0.382592 175 175 179
1.03776 1.75466 6.05347 0.535692 -0.579397 -0.614274 169 169 173
1.04853 1.7474 6.05377 0.602042 -0.582543 -0.546067 176 176 180
1.08891 1.7766 6.07106 0.324997 -0.898837 -0.294055 169 170 173
1.07153 1.77427 6.05919 0.166244 -0.876498 -0.45179 179 180 183
1.08965 1.7848 6.05303 0.445343 -0.82178 -0.355454 176 176 180
1.10706 1.79764 6.04716 0.428129 -0.820217 -0.379407 173 174 177
1.10621 1.78707 6.06496 0.249382 -0.759472 -0.600842 166 167 170
1.13322 1.81273 6.05317 0.626881 -0.595432 -0.502475 178 179 183
1.14475 1.80837 6.06165 0.626641 -0.592899 -0.505758 177 178 181
1.15757 1.81423 6.04296 0.658513 -0.505365 -0.557644 172 173 176
1.18695 1.84111 6.05055 0.448382 -0.159522 -0.879492 170 170 172
1.22034 1.84119 6.03587 0.244127 -0.472011 -0.847117 177 178 180
1.20469 1.84187 6.03215 0.050652 -0.480856 -0.875335 175 176 178
1.20182 1.83884 6.03045 0.122549 -0.546944 -0.828151 175 175 177
1.21272 1.85158 6.0204 0.27494 -0.491734 -0.826199 174 175 176
1.26306 1.88408 6.07447 0.423513 -0.830664 -0.361434 172 172 175
1.2815 1.89688 6.06819 0.552468 -0.700824 -0.451248 156 156 159
1.30748 1.91114 6.07319 0.605166 -0.542806 -0.582353 155 156 159
1.30762 1.9041 6.05906 0.465337 -0.63308 -0.618604 159 159 163
1.32297 1.91644 6.05491 0.521647 -0.732356 -0.437651 140 141 144
1.33441 1.92429 6.0404 0.494413 -0.768536 -0.406089 150 151 154
1.3703 1.9459 6.07213 0.357723 -0.879399 -0.314153 173 174 177
1.40232 1.96737 6.08942 0.501009 -0.759966 -0.414056 156 157 159
1.41021 1.97416 6.07849 0.331758 -0.901256 -0.278701 136 136 139
1.41021 1.97416 6.07849 0.331758 -0.901256 -0.278701 136 136 139
1.41021 1.97416 6.07849 0.331758 -0.901256 -0.278701 136 136 139
1.42556 1.97616 6.06125 0.554554 -0.68728 -0.469164 135 136 139
1.46411 2.01264 6.07012 0.446901 -0.521919 -0.726553 133 132 130
1.47927 2.01108 6.04809 0.361564 -0.790034 -0.495093 133 130 129
1.52361 2.02986 6.05933 0.599688 -0.529808 -0.599731 101 101 97
1.52114 2.03031 6.06435 0.566822 -0.653366 -0.501823 105 104 101
1.52103 2.02822 6.04624 0.602887 -0.482135 -0.635667 90 89 85
-2.37744 0.289473 7.78544 0.59644 -0.750286 -0.285183 97 91 78
-2.40054 0.277239 7.85964 0.508737 -0.799063 -0.320443 81 75 62
-2.36654 0.309243 7.82175 0.123016 -0.810126 -0.573204 73 67 54
-2.34175 0.32289 7.81112 0.325424 -0.867672 -0.375824 70 64 51
-2.05939 0.452463 7.69125 0.407824 -0.606293 -0.682706 74 68 54
-2.06053 0.452655 7.72709 -0.395535 -0.428542 -0.812345 98 91 77
-2.06901 0.449856 7.69104 0.634468 -0.619174 -0.462682 78 72 58
-2.06901 0.449856 7.69104 0.634468 -0.619174 -0.462682 78 72 58
-2.04077 0.463355 7.68449 0.277237 -0.838186 -0.469663 77 72 58
-2.02575 0.463516 7.70682 0.512546 -0.298086 -0.805259 85 80 66
-2.02759 0.463258 7.71166 0.346668 -0.493894 -0.797427 89 83 69
-2.03995 0.450155 7.71574 0.0101305 -0.846089 -0.532946 91 86 71
-2.04113 0.462369 7.70005 0.0132844 -0.614161 -0.789069 84 79 65
-2.01989 0.466419 7.7283 0.897786 -0.157153 -0.411441 86 81 66
-2.00523 0.481072 7.71017 0.0782545 -0.895886 -0.437338 86 79 65
-1.99946 0.471379 7.72171 0.933703 -0.0898857 -0.346581 87 80 66
-1.99152 0.479315 7.73322 0.861629 -0.213511 -0.460443 89 82 69
-1.96787 0.491706 7.70244 0.168261 -0.904338 -0.39225 70 63 50
-1.9402 0.509298 7.67763 0.403053 -0.221957 -0.887853 65 59 45
-1.91403 0.521568 7.69202 0.624275 -0.156786 -0.76531 66 60 47
-1.92354 0.53207 7.68565 0.584848 -0.0555119 -0.809241 78 72 58
-1.91088 0.534906 7.66711 0.85752 -0.414663 -0.304489 79 74 60
-1.90633 0.545057 7.7009 0.0889293 -0.28431 -0.954599 81 76 63
-1.89821 0.532408 7.69747 0.323971 -0.817012 -0.477006 65 59 46
-1.89444 0.543087 7.66429 0.835835 -0.36289 -0.411935 81 76 63
-1.86733 0.545888 7.71495 0.504269 -0.521482 -0.688309 68 61 48
-1.87037 0.550705 7.70105 0.483072 -0.507622 -0.713415 82 76 63
-1.88019 0.552796 7.68652 0.151312 -0.540508 -0.827621 85 80 66
-1.85317 0.537403 7.57568 0.807901 -0.467953 -0.358214 84 79 64
-1.8586 0.545182 7.60632 0.901523 -0.37458 -0.216673 74 70 57
-1.84902 0.564112 7.70273 0.295706 -0.637715 -0.71125 87 81 68
-1.86122 0.552133 7.71682 0.391965 -0.461008 -0.796137 73 67 54
-1.84456 0.561308 7.63247 0.342339 -0.78277 -0.519689 84 79 66
-1.86419 0.554372 7.69747 0.289335 -0.69984 -0.653077 84 78 65
-1.84185 0.57642 7.71153 0.826416 -0.067086 -0.55905 90 84 71
-1.82947 0.568403 7.71383 0.628201 -0.331643 -0.70383 88 82 69
-1.83012 0.578144 7.70541 0.732603 -0.202447 -0.649853 91 84 72
-1.83891 0.564562 7.68201 0.634184 -0.678494 -0.37075 88 83 70
-1.78108 0.575474 7.56708 -0.248895 0.512387 -0.821895 116 108 94
-1.78108 0.575474 7.56708 -0.248895 0.512387 -0.821895 116 108 94
-1.69687 0.611704 7.53454 -0.686805 -0.00225896 -0.726839 131 122 107
-1.71642 0.610717 7.57046 0.827972 -0.101415 -0.551523 97 90 75
-1.66471 0.619021 7.54351 0.827805 -0.515022 -0.222465 84 77 62
-1.64799 0.636099 7.56042 0.794169 -0.449716 -0.408719 60 54 39
-1.65347 0.63103 7.54361 0.656018 -0.618963 -0.431886 72 65 50
-1.64945 0.640442 7.52709 0.605242 -0.532541 -0.591678 94 87 72
-1.62861 0.646559 7.54542 0.520789 -0.641976 -0.562712 84 78 63
-1.63191 0.658696 7.54351 0.536865 -0.690773 -0.484364 99 92 77
-1.61496 0.656443 7.54402 0.0893385 -0.711507 -0.696977 96 89 74
-1.53051 0.689432 7.5265 0.909379 -0.285587 -0.302439 81 74 60
-1.238 0.818833 7.34912 0.699599 -0.477023 -0.531987 95 90 78
-1.20715 0.839789 7.31156 -0.416067 -0.770769 -0.482497 117 113 100
-1.19939 0.837747 7.29066 0.0196461 -0.661424 -0.749755 86 80 68
-1.18255 0.831002 7.3118 0.943199 -0.0739631 -0.323891 73 68 55
-1.17765 0.845888 7.3041 0.103541 -0.679793 -0.726059 77 71 59
-1.17085 0.848299 7.34137 0.298906 -0.901333 -0.313454 78 72 60
-1.14753 0.864027 7.2866 0.612245 -0.715672 -0.336109 81 75 65
-1.12828 0.87026 7.31404 0.552226 -0.294227 -0.780049 74 68 60
-1.12568 0.875611 7.29149 0.903668 -0.268042 -0.333973 63 58 49
-1.0923 0.884956 7.31617 0.410126 -0.697686 -0.587393 114 111 104
-1.09297 0.885717 7.32397 0.599106 -0.300522 -0.742131 112 109 102
-1.05325 0.90336 7.23417 -0.212162 -0.639852 -0.738632 122 120 119
-0.966535 0.9248 7.12122 -0.213577 -0.881657 -0.420793 94 96 98
-0.932402 0.921966 7.12324 0.382247 -0.845286 -0.373336 112 114 118
-0.929101 0.926342 7.08413 -0.414325 -0.700115 -0.581527 118 120 123
-0.928462 0.928964 7.093 -0.526472 -0.451453 -0.720428 126 128 132
-0.874068 0.931973 7.01682 0.286253 -0.900627 -0.327002 117 119 122
-0.897359 0.932806 7.05234 0.683213 -0.657352 -0.317975 116 118 122
-0.859318 0.944636 7.0122 0.0525155 -0.947476 -0.315487 104 105 107
-0.843091 0.948551 7.03851 0.144946 -0.929191 -0.339992 109 110 112
-0.82352 0.9532 7.01015 0.26195 -0.859092 -0.439708 120 121 123
-0.785671 0.97394 6.97409 -0.108129 -0.894355 -0.434094 118 119 120
-0.774322 0.972379 6.94007 -0.272023 -0.880812 -0.387522 116 117 119
-0.766417 0.972072 6.95697 -0.178137 -0.908924 -0.376993 124 125 126
-0.754623 0.975649 6.95371 -0.076869 -0.814639 -0.574851 133 134 135
-0.748094 0.978665 6.93082 -0.0359523 -0.831796 -0.553917 139 140 142
-0.742402 0.978922 6.94734 -0.0137009 -0.809308 -0.587225 147 148 149
-0.734241 0.988055 6.87818 -0.0342989 -0.942136 -0.333472 139 140 141
-0.703537 0.99482 6.88102 0.512579 -0.666364 -0.541499 152 153 152
-0.703759 1.0057 6.87776 0.513381 -0.807269 -0.29113 127 129 126
-0.691468 1.00287 6.88152 0.13055 -0.878698 -0.459181 161 162 163
-0.691464 1.00193 6.89657 0.412945 -0.850194 -0.32657 163 164 165
-0.668302 1.01546 6.87484 -0.00333815 -0.622034 -0.782984 154 155 156
-0.667941 1.01571 6.87255 -0.0409623 -0.668233 -0.742823 153 153 155
-0.670201 1.00676 6.89003 -0.011206 -0.6565 -0.754242 169 170 172
-0.642771 1.02543 6.86493 -0.131485 -0.751814 -0.646133 155 156 158
-0.653328 1.02885 6.8524 -0.231649 -0.589787 -0.773621 144 145 146
-0.655721 1.02113 6.8703 -0.31332 -0.642943 -0.698896 154 155 157
-0.656598 1.01185 6.86494 -0.312122 -0.50191 -0.806639 160 161 163
-0.640232 1.03273 6.84509 -0.0913491 -0.722603 -0.685201 133 134 135
-0.626743 1.03637 6.83897 -0.168591 -0.808431 -0.563929 116 117 118
-0.629969 1.0297 6.85877 -0.135641 -0.72991 -0.66995 139 140 141
-0.629166 1.0296 6.86152 -0.153341 -0.760926 -0.630459 142 143 144
-0.615515 1.03321 6.85577 -0.101762 -0.652731 -0.750724 141 142 143
-0.603517 1.03818 6.85137 -0.10752 -0.634273 -0.765595 154 155 155
-0.59671 1.0519 6.81728 0.265292 -0.787064 -0.556911 137 138 138
-0.556004 1.06604 6.82081 -0.232187 -0.671658 -0.703537 151 153 153
-0.54558 1.07218 6.81896 0.29969 -0.634674 -0.712302 166 168 168
-0.548895 1.06659 6.83467 0.635835 -0.214009 -0.741562 158 159 160
-0.533445 1.07667 6.81268 0.283337 -0.839807 -0.463082 159 161 161
-0.53805 1.07257 6.83142 0.469982 -0.71423 -0.518645 157 158 159
-0.531086 1.08057 6.79279 -0.177675 -0.475181 -0.861762 163 163 164
-0.496247 1.10195 6.82773 -0.548217 -0.721311 -0.423283 188 190 194
-0.495884 1.10876 6.81164 -0.448754 -0.815639 -0.365174 177 178 182
-0.487361 1.10049 6.84657 -0.0554446 -0.952679 -0.298879 150 152 153
-0.4757 1.11242 6.80011 0.530454 -0.389967 -0.752691 160 161 163
-0.485569 1.10694 6.812 0.453411 -0.688738 -0.565737 160 162 164
-0.47523 1.10491 6.81137 -0.569906 -0.687433 -0.450158 186 188 192
-0.465267 1.11689 6.78554 -0.1954 -0.639997 -0.743116 161 161 164
-0.465882 1.11263 6.80694 0.03797 -0.892819 -0.448812 158 160 162
-0.425446 1.13474 6.76356 0.520539 -0.612063 -0.595331 158 158 161
-0.336974 1.17511 6.76753 0.365289 -0.887324 -0.28146 161 162 164
-0.315886 1.17224 6.75015 -0.0336937 -0.920576 -0.389107 171 173 176
-0.327683 1.17785 6.74409 0.867746 -0.267148 -0.419104 163 166 167
-0.305123 1.17816 6.74972 -0.100998 -0.89726 -0.429795 169 172 174
-0.303948 1.18291 6.73247 -0.0234917 -0.9081 -0.418093 164 168 169
-0.297273 1.194 6.74966 0.0411003 -0.924751 -0.378348 173 176 178
-0.304122 1.1894 6.71948 -0.0206123 -0.901305 -0.432694 170 173 175
-0.29648 1.19454 6.7415 -0.0362145 -0.856001 -0.515703 167 170 172
-0.274599 1.20708 6.72712 -0.0840777 -0.918924 -0.38537 151 155 156
-0.254852 1.21037 6.70752 -0.240369 -0.929561 -0.279535 139 144 145
-0.225698 1.21101 6.65643 -0.667806 -0.51078 -0.541423 162 166 169
-0.118583 1.22254 6.4522 -0.296161 -0.900619 -0.318078 147 150 156
-0.0309253 1.24773 6.39543 0.0728932 -0.966588 -0.245753 119 122 127
-0.031218 1.25005 6.37065 -0.0642927 -0.945052 -0.320537 150 154 158
-0.0172455 1.25389 6.37021 -0.0742092 -0.951995 -0.296983 153 157 161
-0.016431 1.2515 6.38865 -0.0201848 -0.964298 -0.264049 137 140 145
-0.0171089 1.24996 6.38939 0.0439143 -0.968861 -0.243681 134 138 142
-0.0170421 1.25081 6.39186 0.122528 -0.960809 -0.248661 134 137 142
-0.00272874 1.25422 6.39068 0.06801 -0.967237 -0.244597 146 150 154
-0.00205927 1.25527 6.39035 0.109778 -0.962721 -0.247218 146 149 153
0.00160103 1.26074 6.35228 0.0241064 -0.970776 -0.238773 143 147 151
0.015265 1.26146 6.33723 0.238517 -0.941498 -0.2381 129 132 135
0.0285477 1.26645 6.32868 0.257486 -0.930963 -0.258862 135 139 141
0.0541667 1.27432 6.33678 0.0821941 -0.953993 -0.288343 149 152 155
0.0411157 1.27325 6.32229 0.35519 -0.889282 -0.288127 137 141 144
0.0408301 1.27174 6.34641 0.316551 -0.90238 -0.292414 140 144 146
0.0541089 1.27876 6.32128 0.107832 -0.938639 -0.327611 155 158 162
0.0667292 1.28123 6.31069 0.125048 -0.936283 -0.328233 158 161 165
0.0677098 1.27814 6.33133 0.149718 -0.950931 -0.270768 149 151 155
0.0667731 1.27666 6.32573 0.12275 -0.955328 -0.26885 149 151 155
0.0792092 1.28382 6.30002 -0.156715 -0.894803 -0.418052 165 167 172
0.0800028 1.27825 6.31179 -0.662318 -0.584764 -0.468387 160 163 167
0.078037 1.28376 6.28144 -0.00794062 -0.96695 -0.254843 162 164 169
0.0908085 1.28214 6.28367 0.185762 -0.943936 -0.272907 161 164 167
0.0906939 1.28563 6.26661 0.166166 -0.94864 -0.269205 166 168 172
0.104287 1.28938 6.28554 0.246177 -0.940062 -0.235968 147 148 151
0.103846 1.29075 6.26277 0.266036 -0.934326 -0.237193 155 157 159
0.116761 1.29312 6.28789 0.364198 -0.830515 -0.421431 171 172 175
0.116834 1.30125 6.27363 0.382049 -0.870704 -0.309698 168 169 172
0.130711 1.30452 6.2905 0.420667 -0.799843 -0.428123 164 164 167
0.139056 1.30873 6.282 0.497114 -0.784721 -0.370257 161 161 163
0.150159 1.31093 6.29366 0.538112 -0.767568 -0.348245 171 171 173
0.152885 1.31899 6.27326 0.553111 -0.755513 -0.351095 179 179 180
0.162583 1.31895 6.29066 0.53848 -0.76676 -0.349454 190 189 192
0.165844 1.3192 6.23717 -0.0443147 -0.968826 -0.243745 181 181 182
0.200303 1.33764 6.26029 0.29219 -0.920342 -0.25999 174 175 176
0.18912 1.3348 6.24043 0.360751 -0.874167 -0.325101 196 196 198
0.21143 1.34142 6.24392 0.40237 -0.862028 -0.308231 185 185 187
0.200247 1.34248 6.24531 0.139797 -0.825669 -0.54656 183 183 185
0.21153 1.34693 6.23098 0.326383 -0.905159 -0.272327 174 175 176
0.224056 1.34603 6.25947 0.395454 -0.865421 -0.307671 191 192 192
0.223819 1.35013 6.24222 0.402598 -0.861985 -0.308053 188 188 188
0.223678 1.35463 6.22628 0.349507 -0.889581 -0.294093 174 174 175
0.236258 1.35388 6.2552 0.373686 -0.876893 -0.302352 201 202 202
0.235109 1.35486 6.22879 0.389085 -0.869379 -0.30462 189 190 190
0.249493 1.36445 6.26032 0.457004 -0.828506 -0.323613 201 202 203
0.257448 1.37456 6.25192 0.481008 -0.812362 -0.329694 195 196 198
0.244705 1.36735 6.23032 0.464127 -0.824522 -0.32365 186 186 188
0.283314 1.38908 6.27052 0.510901 -0.789155 -0.340902 187 188 191
0.270137 1.38055 6.27053 0.483393 -0.810066 -0.331849 195 196 199
0.287327 1.39706 6.25719 0.199142 -0.941048 -0.273444 198 198 203
0.3088 1.40879 6.28759 0.493594 -0.802101 -0.336153 177 179 184
0.309138 1.41595 6.27603 0.500176 -0.797616 -0.337095 176 178 182
0.332783 1.41747 6.28832 0.362296 -0.882721 -0.299241 145 147 151
0.33011 1.42515 6.26659 0.462007 -0.825092 -0.325226 167 169 173
0.341884 1.42621 6.27376 0.378425 -0.853486 -0.358268 151 153 157
0.353463 1.42724 6.28296 0.409717 -0.787318 -0.460719 155 156 160
0.340321 1.4287 6.25902 0.44924 -0.839182 -0.306525 160 162 165
0.36501 1.43643 6.2831 0.57716 -0.656584 -0.485576 162 163 167
0.352747 1.42965 6.26785 0.218938 -0.93912 -0.264801 150 152 155
0.352731 1.43337 6.25222 0.231881 -0.921043 -0.312906 161 163 166
0.379189 1.43559 6.26211 -0.0497549 -0.914878 -0.400654 167 168 172
0.366046 1.43425 6.24347 0.116153 -0.969371 -0.216396 154 156 158
0.378731 1.43961 6.24591 0.00915053 -0.954237 -0.298912 169 171 174
0.366931 1.44128 6.23412 -0.191862 -0.920175 -0.341274 176 177 181
0.395005 1.4424 6.23541 -0.0311147 -0.980809 -0.19247 134 137 139
0.382379 1.44207 6.20996 0.411607 -0.871297 -0.267247 140 142 144
0.382379 1.44207 6.20996 0.411607 -0.871297 -0.267247 140 142 144
0.38271 1.44416 6.23189 -0.0675949 -0.958295 -0.277672 168 169 173
0.407623 1.44604 6.22449 0.233294 -0.947242 -0.219787 145 148 150
0.407588 1.45081 6.20533 0.180587 -0.952266 -0.246125 156 158 161
0.442586 1.46569 6.23058 0.343827 -0.891764 -0.294177 192 193 197
0.425492 1.46065 6.21124 0.285886 -0.917333 -0.277071 169 170 173
0.455966 1.47251 6.22719 0.300641 -0.911076 -0.282055 181 182 186
0.455694 1.47636 6.21045 0.269471 -0.923693 -0.272356 183 184 187
0.468335 1.47755 6.21805 0.23927 -0.940979 -0.239391 188 189 193
0.487285 1.48186 6.20308 0.162031 -0.955158 -0.247829 185 187 191
0.470954 1.48248 6.19515 0.291106 -0.915598 -0.277375 193 194 198
0.489505 1.48672 6.1638 0.234078 -0.936318 -0.261755 193 195 200
0.52095 1.49837 6.18807 -0.0894248 -0.972397 -0.215517 172 174 179
0.50594 1.49764 6.17014 0.243743 -0.893279 -0.377679 187 189 194
0.500799 1.49628 6.1628 0.419303 -0.850884 -0.316513 193 194 199
0.520567 1.50496 6.17183 0.0857254 -0.876359 -0.473968 176 178 183
0.533376 1.50095 6.17515 0.036113 -0.972281 -0.231011 178 180 185
0.536565 1.50569 6.15371 0.0274596 -0.975911 -0.216434 178 180 183
0.551289 1.51006 6.14925 0.319446 -0.903406 -0.286029 163 165 168
0.551718 1.51005 6.14891 0.116569 -0.97137 -0.207008 158 159 162
0.568805 1.5249 6.13279 -0.188478 -0.962087 -0.197142 116 117 121
0.56579 1.5165 6.14334 0.187622 -0.869993 -0.455972 124 126 129
0.572645 1.52246 6.11511 -0.732505 -0.51118 -0.44959 119 120 125
0.587299 1.52769 6.12298 -0.0221298 -0.976332 -0.215143 131 132 136
0.586061 1.52988 6.11239 0.194364 -0.948324 -0.250809 132 134 137
0.603758 1.52971 6.11457 -0.115578 -0.975563 -0.186868 172 174 178
0.604576 1.53491 6.10052 -0.0335795 -0.979655 -0.19786 168 169 173
0.621049 1.53639 6.09153 -0.0420089 -0.979811 -0.195462 172 173 176
0.638732 1.54006 6.08946 -0.0546761 -0.979758 -0.192573 179 180 182
0.654468 1.5552 6.08853 0.125626 -0.917409 -0.377597 174 174 177
0.673409 1.56848 6.09407 0.265725 -0.933744 -0.239818 175 175 177
0.672085 1.56124 6.10473 0.251388 -0.938419 -0.23701 178 178 181
0.669334 1.56594 6.08363 0.107971 -0.975559 -0.191382 172 171 174
0.670663 1.56978 6.09105 0.144936 -0.968754 -0.20127 172 172 174
0.685161 1.5797 6.07606 0.173888 -0.967026 -0.186072 178 178 181
0.685187 1.57987 6.07623 0.178094 -0.966006 -0.187388 178 178 181
0.69121 1.57695 6.09304 0.1887 -0.951486 -0.243036 192 192 194
0.685187 1.57987 6.07623 0.178094 -0.966006 -0.187388 178 178 181
0.705874 1.58338 6.10097 -0.366212 -0.739848 -0.564369 188 188 190
0.689003 1.5436 5.95114 -0.819537 -0.541089 -0.188631 204 204 205
0.700895 1.57978 6.05922 0.277327 -0.93508 -0.220718 173 174 176
0.702011 1.56376 6.00124 -0.811031 -0.547955 -0.204878 204 204 205
0.732111 1.59362 6.075 0.0269561 -0.974535 -0.222611 187 187 190
0.694391 1.55233 5.96321 -0.719528 -0.670582 -0.180555 187 187 189
0.7489 1.59791 6.06433 0.191201 -0.961673 -0.196539 163 163 167
0.7489 1.59791 6.06433 0.191201 -0.961673 -0.196539 163 163 167
0.735715 1.5985 6.068 0.490333 -0.810933 -0.319313 169 169 172
0.761646 1.60423 6.04778 0.205223 -0.809065 -0.550725 176 177 180
0.747601 1.60407 6.03475 0.261747 -0.94135 -0.212953 174 174 177
0.759626 1.60896 6.0262 0.354166 -0.773207 -0.52604 179 180 183
0.772182 1.60634 6.03264 0.427784 -0.841595 -0.329724 170 171 174
0.791135 1.61538 6.04648 0.280852 -0.927883 -0.245265 178 179 182
0.772637 1.60677 6.02181 0.445751 -0.828821 -0.338175 172 172 176
0.787863 1.61645 6.01393 0.418336 -0.847643 -0.326336 186 187 189
0.81944 1.62588 6.02963 -0.241962 -0.850326 -0.467332 197 198 199
0.804797 1.62818 6.01403 0.52574 -0.760246 -0.381607 191 192 192
0.815305 1.62757 6.03261 0.296262 -0.874592 -0.383819 196 197 198
0.815305 1.62757 6.03261 0.296262 -0.874592 -0.383819 196 197 198
0.821334 1.63603 6.02529 0.594178 -0.681538 -0.427151 197 198 198
0.835793 1.6456 6.02233 0.585469 -0.605401 -0.53918 200 201 200
0.861908 1.66511 6.02081 0.272857 -0.587565 -0.761785 196 197 197
0.864924 1.65812 6.0429 0.585174 -0.689627 -0.426599 189 190 190
0.849431 1.65696 6.02228 0.451271 -0.647916 -0.613644 197 198 198
0.878128 1.66739 6.04435 0.0468434 -0.980109 -0.19285 188 189 189
0.886764 1.67989 6.04738 0.345485 -0.898319 -0.271409 184 185 186
0.919311 1.69719 6.07192 0.361857 -0.637944 -0.67977 180 181 182
0.937059 1.70528 6.05231 0.244017 -0.857467 -0.452996 184 184 187
0.954199 1.71869 6.04355 0.619232 -0.634061 -0.463161 179 179 183
0.966596 1.72774 6.03672 0.454804 -0.628625 -0.63086 176 176 179
0.978657 1.73064 6.04218 0.272938 -0.739268 -0.61562 172 172 175
0.981107 1.74197 6.03687 0.0939132 -0.87658 -0.472004 173 174 175
0.995172 1.73778 6.04656 0.187782 -0.858747 -0.476752 169 170 172
0.994325 1.7385 6.04258 0.335113 -0.692884 -0.638444 168 169 171
0.997046 1.75021 6.03809 0.190046 -0.860662 -0.472381 168 169 171
1.01001 1.74583 6.04288 0.515397 -0.777814 -0.359683 158 158 162
1.01082 1.75572 6.03087 -0.0212766 -0.562521 -0.826509 172 173 176
1.03793 1.76956 6.03975 0.420873 -0.760182 -0.494965 165 166 170
1.05097 1.77613 6.02948 -0.0126834 -0.75929 -0.650628 159 159 163
1.0511 1.76601 6.04589 0.435622 -0.662928 -0.6089 173 174 178
1.07169 1.78244 6.04445 0.319986 -0.777907 -0.540805 173 173 177
1.06904 1.78667 6.0222 0.265657 -0.407139 -0.873879 159 159 163
1.09425 1.80349 6.04604 0.577173 -0.699132 -0.422001 149 149 153
1.11785 1.81391 6.03362 0.481691 -0.762278 -0.432326 171 172 176
1.14616 1.81862 6.03457 0.545246 -0.721185 -0.427316 163 164 167
1.13524 1.82382 6.02787 0.502131 -0.771039 -0.391616 158 159 162
1.15862 1.83297 6.02247 0.644541 -0.532023 -0.549107 162 162 165
1.17832 1.8393 6.03945 0.307273 -0.360368 -0.880749 172 172 175
1.16933 1.83851 6.01037 0.377901 -0.563843 -0.734351 159 159 161
1.18794 1.83971 6.02602 0.277579 -0.604534 -0.746651 172 172 174
1.18408 1.83837 6.01023 0.0123469 -0.478718 -0.877882 169 169 171
1.18686 1.83957 6.02497 0.32514 -0.594235 -0.735641 172 172 174
1.17317 1.84203 6.01547 0.449678 -0.389364 -0.803857 160 160 163
1.19438 1.84861 6.00787 0.454715 -0.431433 -0.779166 166 167 168
1.20725 1.86482 6.01183 0.306946 -0.804546 -0.508419 160 161 162
1.23087 1.87393 6.02871 0.580905 -0.657453 -0.479901 165 165 166
1.26388 1.89439 6.05566 0.408426 -0.848664 -0.336093 167 168 169
1.25445 1.89707 6.04286 0.493216 -0.672838 -0.551387 164 165 167
1.26913 1.90831 6.03392 0.517717 -0.753087 -0.405992 140 141 143
1.26913 1.90831 6.03392 0.517717 -0.753087 -0.405992 140 141 143
1.28353 1.91006 6.04376 0.44602 -0.824105 -0.349165 148 149 151
1.30166 1.92106 6.01502 0.641864 -0.513868 -0.569166 160 161 164
1.30605 1.91511 6.03182 0.62192 -0.569054 -0.537952 160 161 164
1.36848 1.95714 6.03409 0.62259 -0.555285 -0.551399 162 162 165
1.39948 1.97575 6.02638 0.165986 -0.970211 -0.176463 127 127 129
1.42871 1.9861 6.04567 0.385308 -0.607974 -0.694194 124 123 125
1.42751 1.99963 6.02229 0.0761154 -0.800495 -0.594487 98 97 94
1.45326 2.01362 6.02269 0.626894 -0.447656 -0.637658 99 96 91
1.50305 2.0326 6.0431 0.579182 -0.632816 -0.513899 79 77 72
1.49542 2.03133 6.02939 0.620331 -0.491484 -0.611255 75 73 68
-2.39637 0.252726 7.66084 0.107819 -0.883906 -0.455065 116 109 95
-2.46158 0.270208 7.75925 0.761056 -0.60648 -0.230163 79 73 59
-2.41277 0.271724 7.76661 0.310012 -0.868968 -0.385728 85 80 66
-2.39418 0.286947 7.70579 0.184463 -0.885838 -0.425752 107 101 86
-2.38679 0.298696 7.74989 0.654185 -0.708687 -0.264207 114 106 92
-2.36747 0.301182 7.7524 0.636464 -0.722153 -0.27094 107 100 87
-2.32756 0.334929 7.74875 0.448576 -0.836228 -0.31544 96 88 76
-2.24211 0.382564 7.7096 0.145041 -0.882135 -0.448109 78 73 58
-2.19844 0.400847 7.68581 0.0990094 -0.86887 -0.485039 70 66 52
-2.12071 0.434531 7.6571 0.816437 -0.310048 -0.487135 83 79 65
-2.10538 0.44532 7.65508 0.428742 -0.623531 -0.653751 80 75 62
-2.08362 0.456099 7.64569 0.355026 -0.746758 -0.562415 71 66 53
-2.08198 0.457352 7.64762 0.328186 -0.718392 -0.613357 73 67 54
-2.06019 0.445519 7.64578 0.603586 -0.616393 -0.505712 76 71 58
-2.05012 0.452076 7.63854 0.224936 -0.704071 -0.673564 73 68 54
-2.00047 0.50494 7.64758 0.466549 -0.347675 -0.813299 78 72 60
-1.99666 0.498702 7.63724 0.0509905 -0.829906 -0.555569 73 68 55
-1.9788 0.503325 7.64305 0.705068 -0.52059 -0.481524 69 64 51
-1.96043 0.511527 7.59338 0.0517543 -0.900602 -0.431552 104 96 82
-1.94559 0.53597 7.65112 0.743608 -0.290168 -0.60237 78 73 59
-1.94264 0.528337 7.61567 0.837876 -0.50208 -0.214195 74 69 56
-1.93768 0.538557 7.66536 0.873939 -0.164046 -0.457514 77 72 59
-1.75144 0.592958 7.46574 0.891169 -0.222739 -0.395228 111 102 87
-1.77125 0.586198 7.47909 0.872564 -0.240888 -0.424977 94 86 72
-1.7698 0.577988 7.49796 0.81822 -0.163582 -0.551141 92 85 71
-1.74316 0.598218 7.47609 0.853146 -0.447325 -0.268405 102 94 79
-1.74448 0.589317 7.49347 0.722313 -0.539079 -0.433195 101 93 79
-1.73637 0.592713 7.51191 0.623049 -0.726565 -0.289678 100 92 78
-1.7125 0.616997 7.5273 0.947038 -0.163959 -0.27611 94 87 72
-1.66539 0.638216 7.50163 0.060927 -0.910832 -0.408256 100 92 77
-1.52066 0.698993 7.39114 -0.260216 -0.650945 -0.713132 110 103 87
-1.47702 0.698804 7.31918 0.382272 -0.871087 -0.308342 86 79 64
-1.47079 0.695887 7.27289 -0.365202 -0.66545 -0.651003 122 115 99
-1.32926 0.773275 7.31062 0.240954 -0.91312 -0.328865 78 71 58
-1.30039 0.776292 7.25118 0.122899 -0.882554 -0.453867 87 81 66
-1.22015 0.844141 7.29569 0.571001 0.644998 -0.507873 110 104 91
-1.21919 0.843373 7.28502 0.628984 0.60381 -0.489687 92 86 73
-1.21487 0.839955 7.26336 0.438286 0.71303 -0.54726 111 105 92
-1.18941 0.846125 7.29159 0.160751 -0.804626 -0.571609 88 83 70
-1.14327 0.876252 7.25324 0.615173 -0.741045 -0.269099 62 57 46
-1.13382 0.877523 7.26237 0.451579 -0.801386 -0.392247 69 63 52
-1.07061 0.907725 7.22629 -0.000259563 -0.916837 -0.399261 94 90 88
-1.04017 0.911588 7.18865 -0.18724 -0.899384 -0.395032 114 112 111
-1.01913 0.919019 7.14859 -0.0958378 -0.920352 -0.379167 96 96 96
-0.980074 0.920569 7.12184 -0.174867 -0.908335 -0.379933 89 91 93
-0.93455 0.931148 7.0426 -0.443351 -0.608113 -0.658512 126 127 129
-0.949278 0.936204 7.08551 0.544494 -0.756268 -0.362746 108 109 111
-0.923617 0.92868 7.01574 -0.431305 -0.542399 -0.720957 115 117 118
-0.948663 0.940641 7.06779 0.577385 -0.76519 -0.2848 97 99 100
-0.921955 0.939368 6.98999 -0.292633 -0.696394 -0.655288 113 115 117
-0.913603 0.93247 7.02234 -0.19809 -0.344972 -0.917472 117 118 121
-0.912977 0.945321 7.03854 -0.250233 -0.389221 -0.886505 126 127 130
-0.914209 0.935181 7.01031 -0.160581 -0.358798 -0.919499 117 119 120
-0.90231 0.937953 7.01185 -0.4386 -0.353902 -0.826065 125 126 129
-0.911381 0.946176 6.99376 0.386148 -0.850877 -0.356227 122 123 126
-0.921205 0.937387 7.03781 0.615272 -0.722882 -0.314457 117 118 120
-0.897713 0.950338 6.98053 0.463016 -0.808335 -0.363607 133 135 138
-0.888779 0.949939 6.99489 0.398581 -0.697173 -0.595888 133 135 138
-0.903614 0.947323 7.01002 0.468389 -0.720396 -0.511509 128 130 133
-0.817856 0.970335 6.91438 -0.511809 -0.361563 -0.77931 165 165 171
-0.816619 0.977438 6.91043 -0.465945 -0.545645 -0.696539 146 148 151
-0.816619 0.977438 6.91043 -0.465945 -0.545645 -0.696539 140 141 145
-0.803463 0.966708 6.89712 -0.605218 -0.451115 -0.655902 145 146 150
-0.748989 0.989084 6.85941 -0.0490932 -0.947588 -0.315701 114 115 115
-0.730561 1.00676 6.84986 0.329347 -0.806718 -0.490649 144 145 146
-0.727818 0.996487 6.85325 0.47681 -0.791514 -0.382305 148 149 150
-0.71648 1.01165 6.83834 0.145672 -0.890492 -0.43105 157 158 158
-0.716671 1.00437 6.85127 0.423764 -0.768986 -0.478628 150 151 150
-0.666258 1.02436 6.859 -0.0745942 -0.613278 -0.786337 141 142 144
-0.677511 1.01831 6.86078 0.120904 -0.694376 -0.709383 146 146 148
-0.651337 1.04098 6.81801 0.132827 -0.931206 -0.33943 147 148 149
-0.65335 1.03811 6.83546 -0.168841 -0.826286 -0.537349 138 139 140
-0.638849 1.04727 6.81286 0.251475 -0.865714 -0.432782 148 149 149
-0.643477 1.04504 6.83585 -0.192912 -0.835707 -0.514177 139 140 141
-0.641135 1.03789 6.78389 -0.0535504 -0.122782 -0.990988 167 169 170
-0.610612 1.05297 6.81052 0.34444 -0.841683 -0.41585 121 123 123
-0.61179 1.06087 6.80171 0.515266 -0.730794 -0.447706 142 144 144
-0.600185 1.0619 6.81126 0.443004 -0.792716 -0.418748 127 128 128
-0.599456 1.06595 6.78916 0.498099 -0.81686 -0.290923 137 138 139
-0.589203 1.07009 6.80762 0.532969 -0.549412 -0.643498 154 156 156
-0.576971 1.07471 6.79743 -0.0638117 -0.669729 -0.739859 164 166 166
-0.567739 1.0722 6.80942 -0.302824 -0.702636 -0.643895 160 161 161
-0.549619 1.07602 6.79981 0.164505 -0.815644 -0.554674 157 158 158
-0.537735 1.08952 6.78471 -0.00304341 -0.534085 -0.845426 157 157 158
-0.548588 1.08403 6.78773 0.0892462 -0.68909 -0.719159 153 153 154
-0.534252 1.09586 6.76703 -0.568589 -0.54402 -0.617049 162 162 163
-0.526588 1.09248 6.78936 -0.193573 -0.190278 -0.962457 159 160 161
-0.419222 1.14673 6.77054 -0.443506 -0.822932 -0.355084 139 140 141
-0.294899 1.19252 6.69516 0.289804 -0.922131 -0.256296 152 154 155
-0.216565 1.21987 6.57888 0.458135 -0.841936 -0.285055 137 140 143
-0.13506 1.23148 6.44083 -0.449989 -0.844489 -0.290428 112 115 120
-0.102001 1.24233 6.40571 -0.665919 -0.641837 -0.380259 138 140 147
-0.101814 1.23672 6.42238 -0.332883 -0.867504 -0.369628 139 141 148
-0.0715145 1.23784 6.36716 0.49818 -0.816365 -0.292174 103 106 110
-0.0736716 1.23925 6.39506 0.403885 -0.876335 -0.262514 117 121 124
-0.0311385 1.25591 6.35824 0.0355128 -0.970092 -0.240126 150 153 158
-0.0125971 1.26338 6.34522 -0.0195951 -0.965049 -0.261337 153 157 162
0.0151729 1.26477 6.31881 0.439064 -0.857377 -0.268565 136 140 143
0.00157621 1.26121 6.33294 -0.20973 -0.923649 -0.320759 161 165 170
0.00368576 1.26608 6.29282 0.137001 -0.965026 -0.223508 129 132 137
0.0428087 1.28176 6.30363 0.417295 -0.855843 -0.305609 144 147 151
0.0409524 1.27671 6.30379 0.30196 -0.910571 -0.282277 142 145 149
0.0537506 1.29095 6.27536 -0.607315 -0.542602 -0.580302 159 161 166
0.0648382 1.28324 6.28836 0.0720167 -0.962752 -0.260618 163 166 171
0.0532217 1.28063 6.28877 -0.403275 -0.679383 -0.613032 157 160 165
0.0524054 1.28137 6.23554 0.0871423 -0.683399 -0.724826 166 168 173
0.0648992 1.29093 6.26621 -0.770174 -0.54408 -0.33288 183 186 193
0.065551 1.28925 6.24647 0.308374 -0.904597 -0.294294 167 170 174
0.0642165 1.28786 6.23485 0.480352 -0.814497 -0.325357 167 169 173
0.090616 1.28927 6.25037 0.276607 -0.931133 -0.237654 163 164 166
0.0904674 1.3022 6.23792 0.525301 -0.781485 -0.336659 178 179 183
0.105675 1.31109 6.23208 0.517522 -0.789374 -0.330241 184 185 188
0.116852 1.30777 6.25582 0.360505 -0.881839 -0.303968 176 177 180
0.132279 1.3166 6.2491 0.381791 -0.871322 -0.308275 187 187 188
0.132296 1.32302 6.23141 0.339559 -0.892107 -0.298068 180 181 180
0.15627 1.32541 6.24431 0.468451 -0.822929 -0.321467 178 179 179
0.154341 1.32613 6.1959 0.00231417 -0.969613 -0.244632 189 190 189
0.188508 1.33869 6.22194 0.328445 -0.517133 -0.790378 203 203 204
0.210237 1.36612 6.21909 -0.271695 -0.895328 -0.352945 187 187 189
0.224199 1.3625 6.21378 0.293083 -0.904922 -0.308574 170 171 171
0.239329 1.36925 6.20442 0.449977 -0.832406 -0.32345 177 178 180
0.256399 1.37687 6.227 0.464937 -0.824133 -0.32348 188 189 191
0.256956 1.37845 6.23217 0.479192 -0.814216 -0.32776 189 189 192
0.269825 1.39299 6.23622 0.231644 -0.913346 -0.334874 194 194 198
0.25429 1.38048 6.20092 0.468071 -0.820462 -0.328255 181 181 184
0.252791 1.37725 6.1859 0.261004 -0.933575 -0.245589 172 173 176
0.288571 1.40638 6.25041 -0.296516 -0.916258 -0.269349 195 196 200
0.269409 1.39293 6.20018 0.600634 -0.707887 -0.371665 188 188 193
0.280769 1.39391 6.21426 0.468484 -0.821757 -0.324405 195 196 200
0.297733 1.40869 6.24227 -0.259994 -0.9357 -0.238469 189 190 195
0.297701 1.41353 6.22261 -0.264172 -0.893712 -0.362619 197 198 202
0.28171 1.39726 6.17546 0.528932 -0.77651 -0.342437 187 188 192
0.293971 1.41238 6.21503 -0.638636 -0.729978 -0.243467 194 195 199
0.311447 1.4182 6.24567 0.449624 -0.834137 -0.319457 183 184 188
0.317253 1.4244 6.21752 0.0560328 -0.977068 -0.205424 187 189 192
0.301707 1.42085 6.21311 0.0160628 -0.926688 -0.375487 195 196 200
0.340307 1.43282 6.24411 0.443089 -0.846128 -0.296207 172 174 176
0.346737 1.42614 6.19482 -0.379324 -0.820006 -0.428607 182 184 187
0.333609 1.42766 6.20615 0.110679 -0.964024 -0.241679 189 191 194
0.331964 1.4253 6.19322 0.0373902 -0.972321 -0.230636 190 191 194
0.352593 1.44028 6.23727 0.261997 -0.898667 -0.35179 175 177 179
0.343303 1.42253 6.14934 -0.416687 -0.815185 -0.4023 196 196 199
0.354981 1.42732 6.14491 -0.0116676 -0.932811 -0.360176 191 192 195
0.35941 1.42985 6.16376 0.197148 -0.953538 -0.227811 177 179 181
0.361067 1.42907 6.16764 0.0829207 -0.974865 -0.206788 175 177 179
0.361067 1.42907 6.16764 0.0829207 -0.974865 -0.206788 175 177 179
0.360334 1.42833 6.15568 -0.0406792 -0.975093 -0.218034 176 178 180
0.370823 1.43476 6.14962 0.0413749 -0.979315 -0.198068 170 171 174
0.370074 1.43408 6.15118 0.157184 -0.963088 -0.218528 170 171 174
0.378518 1.43849 6.19495 0.249062 -0.942907 -0.22112 151 154 156
0.378518 1.43849 6.19495 0.249062 -0.942907 -0.22112 151 154 156
0.39297 1.44993 6.19275 0.340933 -0.894483 -0.289248 155 157 160
0.39291 1.45302 6.17379 0.424321 -0.857939 -0.289643 149 151 153
0.407024 1.45615 6.18561 0.230905 -0.88557 -0.403048 171 172 176
0.407092 1.46111 6.16756 0.337275 -0.859157 -0.384831 174 174 178
0.424143 1.463 6.18228 0.15424 -0.957068 -0.245418 166 167 170
0.422965 1.46444 6.15483 0.0510879 -0.972993 -0.225109 159 159 163
0.433556 1.46208 6.13159 0.192826 -0.948477 -0.251413 163 163 166
0.433556 1.46208 6.13159 0.192826 -0.948477 -0.251413 163 163 166
0.433556 1.46208 6.13159 0.192826 -0.948477 -0.251413 163 163 166
0.451797 1.47243 6.16276 0.371406 -0.879051 -0.298874 173 174 177
0.433966 1.46804 6.11638 0.0934971 -0.968735 -0.229805 165 165 168
0.472873 1.48436 6.15036 0.434177 -0.842321 -0.319353 184 184 189
0.467744 1.47966 6.15427 0.477704 -0.811912 -0.335555 181 182 187
0.456061 1.4765 6.12699 0.45234 -0.839108 -0.302138 155 156 159
0.47511 1.48757 6.13235 0.425023 -0.846556 -0.320467 195 195 198
0.50624 1.50481 6.1524 -0.0668657 -0.464528 -0.883031 193 194 199
0.490689 1.49921 6.13632 0.505527 -0.741907 -0.440474 210 210 214
0.516459 1.50453 6.13348 -0.0168429 -0.80128 -0.598053 172 173 177
0.506916 1.51474 6.14561 -0.133463 -0.66631 -0.733634 198 198 203
0.527736 1.5179 6.11651 -0.483149 -0.621608 -0.616579 190 190 193
0.530817 1.51447 6.14539 -0.215079 -0.663189 -0.716883 184 185 188
0.513513 1.50989 6.10645 -0.435444 -0.723464 -0.535713 181 181 184
0.54052 1.52175 6.11002 0.0183581 -0.864257 -0.502716 194 195 198
0.539884 1.51292 6.11906 0.340073 -0.892336 -0.296793 191 192 195
0.555196 1.52491 6.11818 0.385371 -0.869058 -0.310205 133 134 137
0.559784 1.53101 6.09971 -0.573416 -0.284792 -0.768172 138 138 142
0.572106 1.53118 6.09471 -0.339157 -0.530416 -0.776937 133 133 138
0.582319 1.53858 6.07107 0.171945 -0.954116 -0.245146 167 168 171
0.582957 1.53446 6.08769 0.173422 -0.955198 -0.239835 135 137 141
0.59783 1.5429 6.06102 0.183436 -0.953133 -0.2406 164 164 167
0.614418 1.54501 6.07456 0.36005 -0.892532 -0.271572 161 162 164
