ply
format ascii 1.0
element vertex 664
property float x
property float y
property float z
property float nx
property float ny
property float nz
property uchar diffuse_red
property uchar diffuse_green
property uchar diffuse_blue
end_header
-4.47678 17.3343 61.5728 -0.806476 -0.0567994 -0.588532 95 90 79
-4.24244 17.0414 60.961 -0.799645 -0.00899737 -0.600406 80 75 64
-4.8299 17.8069 62.3576 -0.779245 0.0527851 -0.624493 82 78 66
-4.82305 17.785 62.2894 -0.770321 0.0822217 -0.632333 83 78 66
-4.79541 17.8548 62.5919 -0.0352284 0.330393 -0.943186 90 85 73
-4.80827 17.8695 62.6387 -0.478044 0.216506 -0.851234 86 82 70
-4.67862 17.7827 62.7032 -0.66818 0.280866 -0.688948 95 91 79
-4.239 17.2905 60.5088 -0.685034 -0.611456 -0.396043 107 101 90
-4.58587 17.6662 60.2931 -0.278016 -0.925543 -0.257055 89 86 74
-4.66174 17.7398 60.9704 -0.786201 0.0281699 -0.617329 90 85 73
-4.65512 17.7181 60.9041 -0.790208 0.0127231 -0.612707 90 85 73
-4.46017 17.5375 59.7419 -0.678659 -0.101547 -0.7274 94 89 76
-4.23683 17.3382 59.3083 -0.626525 0.187115 -0.756607 106 100 87
-4.29198 17.3764 59.5806 -0.779752 -0.06524 -0.62268 102 96 83
-4.17637 17.444 59.658 -0.718486 -0.0177027 -0.695316 109 102 88
-4.74366 17.6893 59.7443 -0.283761 -0.915085 -0.286528 79 75 62
-4.39746 17.3714 58.3267 -0.784582 -0.0396975 -0.618754 96 92 79
-4.3496 17.2978 58.1294 -0.807273 -0.0837117 -0.584212 98 93 80
-4.40949 17.4209 58.4629 -0.686243 -0.100248 -0.720431 96 92 78
-4.39907 17.3781 58.345 -0.771582 -0.0501904 -0.634147 96 92 79
-4.17739 17.2879 58.2999 -0.797136 -0.0194728 -0.603486 110 105 91
-4.2946 17.4483 58.8841 -0.751744 0.0194615 -0.659168 104 99 87
-4.02269 17.2489 58.4356 -0.79447 0.00337474 -0.607294 113 106 92
-5.0229 17.7707 59.4512 0.0221522 -0.971705 -0.235157 64 59 46
-5.00109 17.776 58.8772 0.0319897 -0.972312 -0.231488 64 59 45
-4.39282 17.5303 58.7493 -0.703471 -0.022066 -0.710382 97 93 79
-4.56471 17.5913 58.6997 -0.622599 -0.257721 -0.738885 94 90 76
-4.39222 17.5278 58.7424 -0.73161 -0.0134035 -0.681592 97 93 79
-4.05032 16.9946 56.6748 -0.749775 0.122043 -0.650341 113 108 93
-3.64515 17.1281 56.8988 -0.787584 -0.42367 -0.447453 114 109 93
2.71421 15.8305 53.5852 -0.837808 0.113048 -0.534133 113 106 88
2.71436 15.8317 53.5886 -0.837847 0.112932 -0.534097 113 106 88
-5.31729 17.8213 58.7398 0.0695722 -0.97687 -0.202199 97 91 77
-4.98011 17.7822 58.291 -0.0893181 -0.972229 -0.216316 62 58 44
-4.97863 17.7768 58.2745 -0.120382 -0.967927 -0.220511 61 56 43
-4.97863 17.7768 58.2745 -0.120382 -0.967927 -0.220511 61 56 43
-3.98853 17.3116 56.6039 -0.171352 -0.959523 -0.223505 83 78 64
-3.97148 17.2181 56.5975 -0.729743 -0.544933 -0.412944 99 94 80
-3.83455 17.1615 56.517 -0.548717 -0.686576 -0.476994 103 98 82
2.3192 15.9731 53.3939 -0.879262 -0.0952152 -0.466725 121 113 95
2.59883 15.875 53.1522 -0.627378 -0.242002 -0.740157 125 115 95
2.84514 15.8033 52.7777 -0.800347 0.0544269 -0.597062 125 116 95
-3.96792 17.2967 56.0187 -0.697426 -0.600098 -0.391765 73 69 55
-4.19652 17.5099 56.7063 -0.493866 -0.818575 -0.29331 76 72 57
-3.96049 17.2961 56.5106 -0.0979809 -0.972041 -0.213393 80 76 61
-3.87151 17.3383 56.3035 -0.765588 -0.478413 -0.430111 72 68 53
-3.79725 17.3442 56.0178 -0.757955 -0.498582 -0.42062 72 67 51
2.33887 16.1349 53.2342 -0.818224 0.160076 -0.552164 119 110 92
2.42315 16.0203 52.8413 -0.795828 0.201488 -0.571017 124 112 93
2.25137 16.0979 52.9016 -0.790999 0.214074 -0.573143 122 113 96
2.25137 16.0979 52.9016 -0.790999 0.214074 -0.573143 122 113 96
2.25956 16.1527 53.0672 -0.799519 0.197557 -0.567222 122 113 95
2.57665 15.8717 52.6807 -0.804964 0.186124 -0.563375 128 117 97
2.40615 15.7885 51.896 -0.183723 -0.952371 -0.243385 126 115 97
2.67199 15.7984 52.5434 -0.858182 0.0127829 -0.513187 128 118 97
2.27166 15.9893 52.1461 -0.131434 -0.9644 -0.229475 128 117 98
2.21606 15.9582 51.9585 -0.121614 -0.965838 -0.228837 126 116 97
2.49812 16.0083 51.8389 -0.474716 -0.671164 -0.569371 121 109 89
2.4982 16.009 51.8409 -0.438063 -0.738997 -0.511845 121 109 89
2.68993 16.0312 52.2062 -0.820337 0.12755 -0.557475 123 111 91
2.71396 16.0513 52.2603 -0.824313 0.139656 -0.548639 123 112 92
2.64075 15.7878 51.4356 -0.86328 0.0175262 -0.504421 122 112 93
2.71396 16.0513 52.2603 -0.824313 0.139656 -0.548639 123 112 92
2.71396 16.0513 52.2603 -0.824313 0.139656 -0.548639 123 112 92
2.71396 16.0513 52.2603 -0.824313 0.139656 -0.548639 123 112 92
2.11328 15.9096 51.267 0.170674 -0.957783 -0.231351 116 106 89
2.25466 15.9191 51.3305 -0.801578 0.190241 -0.566817 118 107 87
2.26603 15.9321 51.41 -0.774841 0.240621 -0.584571 118 107 87
2.25466 15.9191 51.3305 -0.801578 0.190241 -0.566817 118 107 87
2.26603 15.9321 51.41 -0.774841 0.240621 -0.584571 118 107 87
2.26603 15.9321 51.41 -0.774841 0.240621 -0.584571 118 107 87
2.44362 15.9008 51.3956 -0.708369 0.154501 -0.688725 122 110 90
2.60604 15.7791 50.5599 -0.823348 0.00680856 -0.567496 116 105 87
2.66283 15.7158 50.3946 -0.76725 0.125142 -0.62902 115 104 85
2.66283 15.7158 50.3946 -0.76725 0.125142 -0.62902 117 105 85
2.77619 15.6238 50.2261 -0.820619 0.161236 -0.548258 113 103 85
2.77563 15.6204 50.2163 -0.836789 0.124572 -0.533167 113 103 85
2.77587 15.6218 50.2203 -0.83052 0.140936 -0.538863 113 103 85
2.12912 15.6268 49.8916 0.433247 -0.864505 -0.254811 115 105 87
2.31801 15.7013 50.0389 -0.401746 -0.881903 -0.246672 115 105 87
2.28559 15.6232 49.5491 -0.772087 0.243162 -0.587158 112 101 81
2.28559 15.6232 49.5491 -0.772087 0.243162 -0.587158 112 101 81
2.4738 15.626 49.6407 -0.756628 0.270381 -0.595322 112 101 81
2.44502 15.7991 50.4113 -0.77754 0.229903 -0.5853 118 105 86
2.63494 15.727 50.2043 -0.84347 0.100499 -0.527691 112 102 84
2.58754 15.8814 50.2604 -0.77748 0.235556 -0.583128 113 98 77
2.65332 15.7289 50.3051 -0.872188 -0.00567159 -0.489138 113 102 85
2.65332 15.7289 50.3051 -0.872188 -0.00567159 -0.489138 113 102 85
2.65332 15.7289 50.3051 -0.872188 -0.00567159 -0.489138 113 102 85
2.65332 15.7289 50.3051 -0.872188 -0.00567159 -0.489138 113 102 85
2.65332 15.7289 50.3051 -0.872188 -0.00567159 -0.489138 113 102 85
2.65332 15.7289 50.3051 -0.872188 -0.00567159 -0.489138 113 102 85
2.65332 15.7289 50.3051 -0.872188 -0.00567159 -0.489138 113 102 85
2.65332 15.7289 50.3051 -0.872188 -0.00567159 -0.489138 113 102 85
2.70893 15.7576 49.2588 -0.83269 0.0911423 -0.546187 103 92 73
2.65809 15.7971 49.5095 -0.820568 0.124236 -0.557883 103 92 73
2.67998 15.751 49.1865 -0.797365 0.196736 -0.57053 103 92 74
2.55777 15.6419 49.3679 -0.776002 0.233322 -0.585988 107 95 76
2.70893 15.7576 49.2588 -0.83269 0.0911423 -0.546187 104 93 74
3.65219 15.5595 48.6717 0.613816 -0.715587 -0.333414 106 96 78
3.83703 15.5673 48.6933 0.731868 -0.547541 -0.40567 106 96 76
2.52327 15.952 49.6616 -0.775283 0.25889 -0.576118 102 93 75
2.57573 15.9289 49.48 -0.810551 0.174971 -0.55892 104 94 77
2.63494 15.872 49.3083 -0.769713 0.261961 -0.582168 103 94 76
2.80521 15.6906 48.6386 -0.836562 0.122062 -0.534102 100 90 73
3.71069 15.6366 48.2997 0.531053 -0.231427 -0.815122 102 93 73
-6.94656 18.2291 54.1358 0.0721365 -0.951583 -0.298807 107 100 83
-7.05573 18.3188 54.9261 -0.116813 -0.972729 -0.200383 109 101 84
-6.68939 18.0417 53.8031 0.460164 -0.804799 -0.374897 108 101 84
-6.25593 18.076 53.7454 0.1732 -0.9023 -0.394787 107 100 86
-6.21407 18.036 53.6486 0.12528 -0.973578 -0.19092 107 100 86
2.62863 15.6779 48.2784 -0.859599 0.045491 -0.508941 101 91 74
3.31034 15.6377 48.1028 0.558113 0.335309 -0.758998 103 92 73
3.57728 15.5946 47.6243 0.620213 -0.428244 -0.657224 96 87 68
3.76773 15.7104 47.9285 -0.176621 -0.969699 -0.168787 90 83 65
-7.31807 18.5643 54.8338 -0.398685 0.0988449 -0.911745 108 100 84
-7.18645 18.456 54.0837 0.0168318 -0.985206 -0.170547 103 96 80
-7.20046 18.4928 54.183 -0.471039 -0.828184 -0.303701 103 97 80
-6.92574 18.2995 53.8055 0.278533 -0.854133 -0.439177 101 95 78
-6.666 18.09 53.4253 0.223837 -0.81448 -0.535275 103 97 80
-6.45922 18.0584 53.5235 0.173303 -0.876039 -0.450024 110 102 87
-6.45576 18.158 53.2864 -0.167039 -0.965139 -0.201507 97 90 75
-6.00983 18.0741 53.4086 0.273828 -0.766458 -0.580999 98 93 79
-5.61776 17.901 53.0927 0.458471 -0.855846 -0.239442 97 93 80
2.9375 15.6264 47.0256 -0.131048 -0.966199 -0.222006 83 74 54
2.91118 15.6205 47.4887 0.13735 -0.966737 -0.215765 95 86 69
3.15575 15.7305 47.3262 -0.776025 -0.567542 -0.275103 82 73 56
3.50924 15.6509 47.1374 0.555161 -0.335345 -0.761144 86 78 58
3.67347 15.6156 47.1211 0.703306 -0.602347 -0.377542 92 82 63
3.83995 15.6893 47.5402 0.181868 -0.959632 -0.214548 90 82 65
-6.68438 18.2601 53.369 0.0774487 -0.199427 -0.976847 96 91 75
-6.53202 18.4308 53.5193 -0.331385 -0.462724 -0.822235 95 90 74
-6.19962 18.2005 53.2665 0.0661927 -0.526957 -0.847311 93 87 73
-6.05417 18.223 53.1837 0.27049 -0.768699 -0.579601 93 88 74
-5.74397 17.8593 52.062 -0.719724 -0.551685 -0.421475 90 87 74
2.71771 15.8626 47.339 -0.606427 -0.749742 -0.264826 80 71 53
2.71909 15.8737 47.3674 -0.696491 -0.674235 -0.245578 80 71 53
3.10227 15.7544 46.8223 -0.642105 -0.734949 -0.218061 81 74 56
3.32048 15.6146 46.9678 0.627716 -0.445166 -0.638592 83 74 55
-6.322 18.1812 52.3434 -0.120026 -0.975382 -0.184995 95 90 74
-6.322 18.1812 52.3434 -0.120026 -0.975382 -0.184995 95 90 74
-5.9701 17.8853 51.8973 -0.0116133 -0.954577 -0.297738 95 90 75
-5.21394 17.7159 51.5017 0.274989 -0.949468 -0.1513 89 85 72
-6.89048 18.1256 51.4967 -0.614487 -0.699394 -0.365038 97 91 74
-6.84607 17.9549 51.1646 -0.703778 -0.556288 -0.44186 98 91 75
-6.70984 18.0835 51.2614 -0.686949 -0.592819 -0.420317 98 92 75
-6.48627 17.9556 51.4435 -0.442011 -0.853115 -0.277168 98 92 75
-6.19935 17.9006 51.1485 -0.471317 -0.834742 -0.284721 98 92 75
-6.24319 17.8692 51.2039 -0.514427 -0.801583 -0.304679 98 92 75
-6.15319 17.9155 51.2152 -0.583057 -0.739629 -0.336146 97 92 76
-7.03291 18.1537 51.0883 -0.512353 -0.640904 -0.571608 101 94 77
-6.19306 17.9936 50.7795 -0.413719 -0.872314 -0.260584 102 95 79
-8.46689 18.4583 50.9063 -0.298392 -0.925066 -0.234981 99 92 75
-7.24552 18.0136 50.0207 -0.455571 -0.842288 -0.288107 101 94 77
-6.67321 18.1327 50.6805 -0.567565 -0.751354 -0.336655 102 96 80
-6.61324 18.0164 50.1431 -0.723058 -0.520547 -0.454113 104 98 82
-8.66719 18.5632 50.6678 -0.477113 -0.822589 -0.309371 97 90 74
-8.44211 18.5085 50.502 -0.314936 -0.904946 -0.286162 98 91 75
-8.29335 18.3351 50.49 -0.63387 -0.656298 -0.409246 99 92 75
-8.29302 18.3344 50.4884 -0.63478 -0.654966 -0.409969 99 92 75
-7.19256 18.1844 50.1184 -0.230276 -0.951891 -0.202181 100 93 76
-7.05763 18.2482 50.0799 -0.499545 -0.81148 -0.303241 102 95 78
-10.1088 19.0723 51.4904 -0.677828 -0.551073 -0.48669 97 90 74
-9.85334 18.9393 50.9981 -0.523183 -0.775229 -0.353977 99 92 77
-9.63593 18.8527 51.1781 -0.633666 -0.648613 -0.421626 99 92 76
-9.26747 18.6671 50.5124 -0.639499 -0.643754 -0.420265 98 90 75
-9.2713 18.6658 50.7722 -0.690741 -0.559067 -0.458608 97 90 74
-9.11587 18.705 50.6307 -0.650705 -0.627846 -0.427074 99 92 76
-8.44804 18.2953 49.4159 -0.693986 -0.544913 -0.470589 99 92 76
-8.54558 18.4381 49.77 -0.687689 -0.56506 -0.455841 97 90 74
-8.39426 18.3277 49.9982 -0.662916 -0.6088 -0.43578 99 92 76
-8.38601 18.466 49.9589 -0.553603 -0.754992 -0.351442 101 93 78
-7.91002 18.1575 49.3174 0.0490185 -0.76221 -0.645471 104 97 80
-9.93194 18.9252 50.5042 -0.611441 -0.609661 -0.504433 100 92 77
-10.0218 18.8678 50.5502 -0.608436 -0.675395 -0.416709 99 91 76
-10.1113 18.9281 50.6903 -0.626569 -0.645775 -0.436333 99 92 77
-9.90401 18.965 50.5628 -0.500663 -0.796664 -0.33862 100 93 78
-9.64207 18.7944 50.1382 -0.568516 -0.731123 -0.377159 103 96 81
-9.81107 18.9436 50.8523 -0.610615 -0.675596 -0.413181 99 92 77
-9.48218 18.7438 50.3271 -0.514542 -0.78584 -0.343078 100 92 77
-9.47688 18.7823 50.5013 -0.674713 -0.587627 -0.446606 99 92 76
-9.33244 18.7893 50.4557 -0.521422 -0.780735 -0.344344 98 90 74
-9.04644 18.6816 49.9804 -0.340079 -0.907161 -0.247802 102 95 79
-8.74748 18.5249 49.5484 -0.267649 -0.938867 -0.216548 98 91 74
-8.74748 18.5249 49.5484 -0.267649 -0.938867 -0.216548 98 91 74
-8.52398 18.5358 49.4952 -0.30939 -0.922772 -0.229717 100 93 77
-8.40851 18.3857 49.1294 -0.330504 -0.891636 -0.309438 103 96 80
-8.25455 18.4673 49.6965 -0.271419 -0.937548 -0.217566 100 93 77
-7.91736 18.1178 48.8896 -0.630906 -0.673484 -0.385197 102 95 78
-10.0081 18.8634 49.9287 -0.628829 -0.64453 -0.434921 100 93 78
-9.99511 18.8873 49.9662 -0.562298 -0.733967 -0.380938 101 94 79
-10.0041 18.8527 49.939 -0.445747 -0.841674 -0.304787 100 93 78
-9.81325 18.7968 49.7398 -0.379246 -0.885236 -0.269313 103 96 81
-9.83075 18.9075 49.8345 -0.488225 -0.806888 -0.332518 104 97 82
-9.69601 18.8837 49.7221 -0.554419 -0.745711 -0.369506 107 99 84
-9.51084 18.813 49.9445 -0.361799 -0.895196 -0.260243 104 97 82
-9.47036 18.8057 49.988 -0.497398 -0.802122 -0.330447 103 96 80
-9.2463 18.7193 49.6675 -0.324364 -0.914647 -0.241265 105 98 82
-8.73264 18.562 49.1928 -0.192267 -0.961551 -0.196093 104 98 80
-10.6 19.0295 49.5988 -0.0953738 -0.981775 -0.16438 108 101 84
-10.2332 19.014 49.8342 -0.424185 -0.844022 -0.328167 106 99 83
-9.92579 18.7791 49.2752 -0.582795 -0.711206 -0.39311 109 102 86
-9.93809 18.853 49.2776 -0.52028 -0.779267 -0.34936 112 105 88
-9.81441 18.8803 49.3044 -0.609442 -0.676539 -0.413372 113 106 89
-9.55886 18.7062 48.756 -0.604753 -0.685519 -0.405385 113 106 90
-9.33047 18.5222 48.3872 -0.288937 -0.929533 -0.229093 112 105 89
-9.4556 18.7462 49.2359 -0.133853 -0.969638 -0.204661 108 101 85
-9.45656 18.779 49.4096 -0.33586 -0.862463 -0.378624 108 101 85
-12.2458 19.4249 49.8784 -0.0347961 -0.951249 -0.306454 105 98 81
-10.8423 19.05 49.3895 -0.0342027 -0.974562 -0.221492 112 105 88
-10.5224 18.9503 48.9907 -0.136644 -0.965401 -0.222104 110 103 85
-10.3502 19.0733 49.1395 -0.209869 -0.957642 -0.19717 111 104 87
-10.381 19.0682 49.5489 -0.560997 -0.682854 -0.467966 111 104 87
-9.52831 18.4093 47.7535 -0.396744 -0.878143 -0.267319 111 104 86
-9.52831 18.4093 47.7535 -0.396744 -0.878143 -0.267319 111 104 86
-12.213 19.4178 49.4081 -0.493483 -0.79034 -0.363095 111 104 86
-11.9641 19.3014 49.2129 0.360377 -0.376094 -0.853629 117 110 92
-11.4519 19.3177 49.5225 -0.608395 -0.658355 -0.443198 113 106 89
-11.2179 19.2402 49.2944 -0.492202 -0.79823 -0.347228 109 102 85
-10.9997 19.166 48.9145 -0.12955 -0.976806 -0.170488 103 96 78
-11.0196 19.1266 48.9152 -0.489455 -0.80369 -0.338402 104 97 79
-10.8248 19.0933 49.0305 -0.14215 -0.974194 -0.175326 106 99 81
-10.6774 19.0458 48.5157 -0.217393 -0.955539 -0.199213 105 98 80
-10.7206 19.0669 48.9644 -0.000584744 -0.973812 -0.227352 108 101 83
-10.6252 19.0773 48.9461 -0.329072 -0.910739 -0.249531 107 100 82
-10.5669 19.0944 48.911 -0.0468765 -0.988384 -0.144569 106 99 81
-10.3828 19.0638 48.7795 -0.293172 -0.928456 -0.228079 105 98 81
-12.5137 19.5423 49.1731 -0.183949 -0.963632 -0.193846 114 107 88
-12.2199 19.4188 49.1133 -0.250746 -0.941989 -0.223122 111 104 86
-11.5182 19.2543 48.5705 -0.302152 -0.921348 -0.244585 108 101 83
-11.3172 19.2006 48.8281 -0.319056 -0.914549 -0.248604 108 101 83
-11.2863 19.1594 48.5966 -0.31147 -0.919485 -0.239863 105 98 80
-11.1326 19.1783 48.5648 -0.547783 -0.735622 -0.398491 107 100 82
-10.962 19.1785 48.3504 -0.513044 -0.781231 -0.355619 107 100 82
-11.0289 19.2376 48.5499 -0.579654 -0.70476 -0.409042 107 100 83
-10.7663 19.0959 48.5164 -0.472683 -0.818048 -0.327672 108 101 83
-10.5615 19.0687 48.4051 -0.319571 -0.916593 -0.240273 104 97 80
-12.718 19.6039 48.8342 -0.199835 -0.959195 -0.200028 117 110 91
-12.5039 19.5669 49.0969 -0.240732 -0.945734 -0.218254 117 109 91
-12.16 19.388 48.6556 -0.026361 -0.97556 -0.218146 114 108 88
-11.8175 19.32 48.5153 0.293735 -0.953478 -0.0678166 107 100 82
-11.4122 19.1825 47.8857 -0.268791 -0.897039 -0.350815 119 112 93
-11.2159 19.1027 48.0187 -0.537723 -0.752723 -0.37982 105 98 79
-11.283 19.2219 48.2887 -0.610543 -0.656563 -0.442902 104 97 78
-11.0942 19.1907 48.0083 -0.606625 -0.665209 -0.43532 106 99 81
-12.9589 19.6646 48.6578 -0.0406517 -0.989379 -0.139557 122 115 96
-12.5881 19.4586 48.1382 -0.204221 -0.952694 -0.225095 122 114 96
-12.3496 19.446 47.9966 -0.073228 -0.986498 -0.146492 115 108 89
-12.4489 19.5503 48.6148 -0.567854 -0.7052 -0.424541 117 109 90
-12.043 19.2728 47.6821 0.105126 -0.986868 -0.122638 120 114 93
-11.8325 19.3314 47.9328 -0.084397 -0.941467 -0.32637 110 103 83
-11.1882 19.1446 47.6915 -0.324413 -0.865358 -0.381983 105 98 79
-13.4875 19.7134 48.355 0.0760989 -0.988815 -0.128269 111 103 83
-13.0232 19.4537 47.6362 -0.0635263 -0.936875 -0.343845 114 107 88
-13.1001 19.5477 47.7921 0.0712664 -0.9868 -0.145419 114 106 88
-12.8528 19.5271 47.6165 0.073736 -0.896153 -0.437575 118 111 93
-12.8691 19.5997 48.1438 -0.0790546 -0.985509 -0.150074 123 116 97
-12.8466 19.571 48.1558 -0.151828 -0.972353 -0.177422 123 115 96
-12.7925 19.5662 47.7543 -0.0216371 -0.964485 -0.263249 122 114 96
-12.5602 19.4817 47.7683 -0.0165455 -0.946795 -0.321412 112 104 86
-12.3068 19.4387 47.4853 -0.00303369 -0.992701 -0.120561 121 114 96
-12.3425 19.4184 47.8284 0.128955 -0.987643 -0.0890599 115 108 89
-12.0288 19.3801 47.5446 -0.00128045 -0.984327 -0.176351 121 115 94
-12.4638 19.2781 46.8927 -0.0829535 -0.944324 -0.318388 123 116 97
-12.3958 19.3073 46.998 -0.0828401 -0.887466 -0.453368 117 110 92
-13.5227 19.6429 47.0548 0.298501 -0.95226 -0.0640119 108 101 82
-13.8568 19.8212 47.0019 -0.293433 -0.924335 -0.243928 108 101 83
-13.5801 19.7479 46.9286 0.23587 -0.950711 -0.201283 110 103 84
-13.6312 19.7641 46.8709 -0.244049 -0.945734 -0.214539 112 105 86
-13.6376 19.773 46.8888 -0.274322 -0.93352 -0.230841 111 104 86
-14.8274 19.9529 46.7182 0.313138 -0.941103 -0.127551 120 113 96
-13.9926 19.7863 46.5788 -0.189259 -0.963647 -0.188589 117 111 92
-13.6046 19.5409 45.9743 -0.448551 -0.824589 -0.344752 116 109 91
-13.601 19.5597 45.9895 -0.45526 -0.818976 -0.349309 117 109 91
-13.5895 19.5435 45.9555 -0.47012 -0.805224 -0.361389 117 109 91
-13.5895 19.5435 45.9555 -0.47012 -0.805224 -0.361389 117 109 91
-15.6577 20.2613 46.9743 -0.3459 -0.89142 -0.292785 119 114 97
-15.2989 20.0632 46.5159 -0.385154 -0.740625 -0.550574 120 115 98
-15.231 20.1402 47.0585 0.191969 -0.98006 -0.0512916 117 111 94
-15.2132 20.0699 46.8223 -0.22424 -0.897278 -0.380274 119 113 96
-14.1981 19.8746 46.41 -0.192864 -0.962916 -0.188671 118 112 94
-16.1851 20.0757 46.3662 -0.128279 -0.977113 -0.169693 120 114 96
-15.3205 19.9723 46.062 -0.55218 -0.685533 -0.474491 120 115 97
-15.1473 19.9995 45.9566 0.11193 -0.991423 -0.0674752 119 114 96
-16.2125 20.1085 45.9963 -0.611462 -0.502975 -0.610844 122 116 98
-16.1406 20.1028 45.8182 0.198357 -0.957797 -0.208035 121 116 98
-15.4957 19.8494 45.2723 -0.429421 -0.682745 -0.591149 121 115 98
-15.0568 19.6118 45.0291 -0.608259 -0.583065 -0.538569 118 113 94
-14.9157 19.6784 44.9547 -0.556544 -0.691438 -0.460621 117 113 95
-16.9292 20.2823 45.9451 -0.395705 -0.849711 -0.348437 120 115 98
-16.7918 20.3182 46.0438 -0.145641 -0.895733 -0.42006 122 117 100
-16.4857 20.0134 45.44 -0.395888 -0.853689 -0.33836 122 117 101
-16.6343 20.2877 45.7964 -0.230178 -0.934894 -0.270168 121 116 100
-16.4971 20.2089 45.5995 -0.313559 -0.907965 -0.277994 121 116 100
-16.4722 20.2465 46.0169 -0.544854 -0.679716 -0.491041 124 119 102
-16.3729 20.2378 45.8601 -0.565718 -0.625441 -0.537389 120 115 99
-16.1557 20.2295 45.7321 -0.335189 -0.757089 -0.560772 116 111 94
-15.7717 19.9342 45.3137 0.157892 -0.972076 -0.173606 120 114 97
-15.4889 19.6652 44.4522 -0.554692 -0.58382 -0.592849 116 110 95
-15.2507 19.7715 44.9717 -0.577771 -0.648941 -0.495032 123 118 100
-15.2477 19.7672 44.9643 -0.589654 -0.625904 -0.510443 123 118 100
-18.1369 20.549 45.8786 -0.262163 -0.274683 -0.925105 117 110 94
-17.1719 20.4973 45.7597 0.0462621 -0.985757 -0.161691 106 100 84
-16.2831 19.8767 44.6252 -0.538234 -0.697463 -0.473127 108 103 88
-16.822 20.3139 45.5867 -0.12707 -0.930267 -0.344174 112 106 91
-16.3338 19.9434 44.723 -0.509848 -0.731022 -0.4535 108 103 88
-16.4312 20.1829 45.1962 -0.114897 -0.961296 -0.250416 111 106 91
-16.4859 20.1739 45.1839 -0.166544 -0.963452 -0.209816 110 105 90
-15.7941 19.6954 44.0949 -0.0660329 -0.95821 -0.278341 107 103 89
-16.0067 19.9044 44.5787 -0.384163 -0.865792 -0.320659 110 106 91
-15.7978 19.6998 44.1035 -0.0660768 -0.957986 -0.279098 107 103 89
-15.814 19.7154 44.3695 0.47227 -0.643661 -0.602214 109 105 90
-16.2718 20.2101 45.4579 -0.185327 -0.897903 -0.39928 117 113 97
-17.6514 20.3459 45.0425 -0.421109 -0.105023 -0.900909 108 101 85
-17.5979 20.5274 45.3824 -0.0176484 -0.993721 -0.110487 104 99 83
-17.7282 20.4357 45.3491 0.562665 -0.826572 0.0137071 103 96 80
-16.7025 19.7265 44.0512 0.638122 0.360878 -0.680123 101 94 78
-16.9978 20.3468 45.13 -0.0507341 -0.980279 -0.190996 101 94 79
-16.3968 19.7795 43.9522 -0.110363 -0.918615 -0.379429 98 92 77
-16.8069 20.2154 44.7652 -0.125136 -0.979209 -0.159656 101 95 81
-16.6316 20.2173 45.035 -0.133438 -0.931897 -0.337287 101 96 81
-16.7057 20.2509 45.0699 0.107559 -0.974977 -0.194555 100 95 79
-16.5804 20.0907 44.7733 -0.176887 -0.883269 -0.434221 100 95 80
-16.688 20.2354 45.0554 -0.106908 -0.942663 -0.316159 100 94 79
-16.3634 20.0756 44.6002 -0.123531 -0.954307 -0.2721 104 99 84
-16.1993 19.9676 44.417 -0.128931 -0.960071 -0.248273 105 100 85
-15.6306 19.9745 44.6319 -0.251173 -0.94123 -0.225829 111 105 91
-18.1053 20.5314 45.1621 -0.0841669 -0.986035 -0.1437 100 94 78
-17.0709 20.2942 44.6746 -0.0825761 -0.891466 -0.4455 82 77 61
-17.1425 20.2861 44.8099 -0.0283589 -0.993289 -0.112125 101 95 79
-16.5887 20.2296 44.4098 -0.276377 -0.483678 -0.830464 62 58 44
-16.5006 20.0895 44.4028 -0.512786 -0.741277 -0.433082 77 75 59
-18.4128 20.6778 44.9796 -0.381241 -0.586872 -0.714309 71 68 51
-18.2238 20.5601 45.0175 -0.264047 -0.734473 -0.625163 79 73 57
-18.0363 20.5947 44.889 -0.216915 -0.563802 -0.796916 68 63 47
-17.8513 20.6074 44.8728 -0.167385 -0.385592 -0.90736 71 65 50
-17.317 20.4521 44.7363 -0.24002 -0.883132 -0.403074 64 60 43
-17.111 20.4517 44.5812 -0.524032 -0.622325 -0.581466 83 80 63
-18.9374 20.8794 44.9511 0.0493022 -0.989544 -0.135542 98 95 79
-18.5878 20.7995 44.9376 -0.425852 -0.693129 -0.581569 95 92 75
-18.781 20.7755 45.0769 -0.473396 -0.629214 -0.61643 74 70 54
-18.063 20.7982 44.8332 -0.398448 -0.422394 -0.814139 101 97 80
-17.7644 20.7883 44.7708 -0.329448 -0.31299 -0.890787 101 96 80
-17.5533 20.5988 44.7257 -0.459534 -0.563784 -0.686277 91 87 70
-16.8106 20.3787 44.2843 -0.299233 -0.919335 -0.255506 105 102 85
-16.6926 20.4606 44.3741 -0.455749 -0.0229502 -0.889812 105 102 85
-19.4678 21.0586 44.9181 -0.25589 -0.901617 -0.348722 93 90 72
-19.2876 21.0067 45.0415 -0.113225 -0.89326 -0.435047 89 87 70
-18.9426 20.8963 44.5611 -0.234911 -0.9446 -0.229231 103 98 81
-19.0595 21.0012 44.8703 -0.483531 -0.737113 -0.472082 97 94 77
-19.0271 20.8999 44.9235 -0.182569 -0.946846 -0.264861 97 93 77
-18.711 20.8426 44.7279 -0.187892 -0.961213 -0.201905 98 95 79
-18.6196 20.7116 44.3984 0.464169 -0.877382 -0.121441 99 95 79
-18.5048 20.8861 44.6661 -0.490883 -0.734317 -0.468843 99 96 79
-17.8416 20.7525 44.3569 -0.449114 -0.795718 -0.406362 102 98 81
-17.7572 20.7708 44.4476 -0.468257 -0.774775 -0.424805 103 98 82
-17.5169 20.7343 44.4839 -0.614757 -0.447251 -0.649646 101 97 80
-17.0619 20.5424 44.2338 -0.35339 -0.884087 -0.305788 99 97 80
-19.2483 20.9206 44.2678 -0.520837 -0.659928 -0.541502 107 102 84
-19.052 20.8427 44.4004 0.375032 -0.77412 -0.509989 101 97 80
-18.9946 20.7851 44.3171 -0.423736 -0.810276 -0.404846 101 97 79
-18.2796 20.7163 44.1526 0.419139 -0.901135 -0.110808 107 103 86
-19.194 20.8709 44.1371 -0.352505 -0.87356 -0.335608 106 101 83
-18.7386 20.618 43.4587 -0.219877 -0.949699 -0.222992 103 98 80
-18.849 20.7132 43.7529 -0.456255 -0.780352 -0.427646 105 98 81
-18.7205 20.6275 43.5206 -0.0795093 -0.988091 -0.131735 105 100 83
-18.5102 20.6122 43.33 -0.31888 -0.903833 -0.285309 106 100 82
-18.4673 20.6125 43.3574 -0.231288 -0.946491 -0.225079 101 97 79
-19.0022 20.834 43.5179 -0.548779 -0.576682 -0.60521 107 100 83
-18.9415 20.7529 43.4707 -0.563321 -0.427911 -0.706797 106 100 82
-18.2733 20.0516 42.1871 -0.482363 -0.439779 -0.757576 101 95 78
-4.53359 17.7424 61.6685 -0.811807 -0.102447 -0.574869 98 92 80
-4.57061 17.8707 61.7452 -0.776514 0.0591523 -0.627317 96 91 78
-3.92168 17.2857 59.844 0.8712 0.0781208 -0.484672 113 103 88
-5.62013 17.977 59.2329 0.255077 -0.943686 -0.210695 100 93 78
-4.47098 17.556 57.8294 0.0326058 -0.97856 -0.203366 96 93 78
-7.01755 18.3226 54.8965 0.0720374 -0.982996 -0.168907 108 100 83
-6.54038 18.3205 55.2979 0.618636 -0.765618 -0.176404 107 99 81
-6.48809 18.0343 53.966 0.203946 -0.966466 -0.156044 108 100 84
-5.6477 17.8711 53.5895 0.49838 -0.850393 -0.168671 98 93 79
-5.28876 17.7019 53.0121 0.267812 -0.950505 -0.157536 94 89 77
-5.6043 17.7474 52.6982 0.203968 -0.966565 -0.155397 98 93 80
-5.26244 17.6611 52.0858 0.119332 -0.980125 -0.158477 94 90 77
-4.98722 17.6906 52.3034 0.126729 -0.979055 -0.159346 78 73 62
2.65672 15.8765 47.8622 -0.214777 -0.962037 -0.168392 90 82 64
-5.22929 17.7143 51.9557 0.211338 -0.965597 -0.151521 93 90 78
-5.28715 17.6919 51.6752 0.458751 -0.874981 -0.154777 91 88 75
2.72208 15.8339 47.7063 -0.12916 -0.97741 -0.167293 89 81 63
3.68523 15.6227 47.1694 -0.120602 -0.978789 -0.16561 86 80 62
-6.01103 18.0673 51.8908 0.0770433 -0.985236 -0.152888 95 91 76
-6.01106 18.0674 51.891 0.0744985 -0.985384 -0.153192 95 91 76
-6.01106 18.0674 51.891 0.0744985 -0.985384 -0.153192 95 91 76
-5.48163 17.6547 51.3016 0.258618 -0.95494 -0.145621 86 83 69
3.57754 15.7906 47.1043 0.581329 -0.756098 -0.300621 88 82 64
3.47536 15.7638 46.5365 0.585663 -0.753569 -0.298551 97 91 73
-7.48396 18.3746 52.45 -0.71992 -0.516162 -0.463995 100 94 77
-6.48841 18.0547 51.171 -0.445258 -0.851941 -0.275574 97 91 74
-7.14024 18.0858 50.5586 -0.366088 -0.814584 -0.449925 102 95 79
-6.48941 18.1649 51.2287 -0.449412 -0.849716 -0.275702 98 92 75
-6.44038 18.008 50.5744 -0.458981 -0.841912 -0.283763 101 95 78
-8.45505 18.4526 50.835 -0.296185 -0.926256 -0.233076 98 91 74
-8.18046 18.3624 51.008 -0.523797 -0.785228 -0.330232 101 94 78
-8.16051 18.3149 50.9037 -0.523496 -0.785466 -0.330145 101 94 78
-8.18046 18.3624 51.008 -0.523797 -0.785228 -0.330232 101 94 78
-7.5285 17.9452 49.235 0.0338763 -0.415383 -0.909016 101 94 76
-9.76155 19.0091 51.0391 -0.60435 -0.684247 -0.408126 100 94 78
-7.7091 18.0409 49.2624 0.2975 -0.600231 -0.74244 102 95 77
-9.84396 19.0872 50.697 -0.354881 -0.898082 -0.259824 102 95 80
-10.8115 19.0653 48.578 0.102242 -0.989238 -0.104661 104 97 80
-12.1021 19.3133 48.4746 0.183366 -0.9797 -0.0810194 115 108 89
-13.2814 19.7365 48.6244 -0.0184439 -0.991293 -0.130374 121 113 94
-11.4266 19.3004 47.7472 0.201205 -0.976855 -0.0726037 119 112 93
-14.0627 19.8367 47.9656 0.141634 -0.987036 -0.0754973 122 115 97
-14.5957 19.9752 47.5145 0.112122 -0.990532 -0.079216 123 116 98
-14.3133 19.9323 47.5966 0.0220171 -0.993878 -0.108263 114 107 89
-13.8794 19.7535 47.2354 0.271083 -0.961744 -0.0395259 113 106 88
-13.9554 19.8186 47.1739 -0.00250867 -0.993413 -0.114565 109 102 83
-13.295 19.7215 47.2297 0.180378 -0.981668 -0.0615852 116 109 90
-15.3016 20.1936 47.4976 0.285343 -0.958046 -0.0269524 118 112 94
-14.5673 19.962 47.1421 0.151666 -0.986419 -0.0630544 120 113 96
-14.5401 19.9364 47.0788 0.0663891 -0.993781 -0.0894015 120 113 96
-14.2394 19.8666 47.1027 0.0246815 -0.994232 -0.104373 111 104 86
-14.4548 19.8342 46.5517 0.184316 -0.981539 -0.0510734 120 113 96
-16.1366 20.3186 46.6802 0.38493 -0.922912 0.00788489 121 115 97
-16.6221 20.3145 46.076 -0.4039 -0.845301 -0.349759 125 120 103
-15.6181 19.9701 45.0266 0.606458 -0.782168 -0.142907 107 101 86
-17.5902 20.4684 45.5241 0.569249 -0.818911 -0.0730796 104 98 83
-17.3071 20.537 44.4935 -0.0520727 -0.991851 -0.116279 95 92 75
-18.5473 20.6694 44.0936 0.375518 -0.92573 0.0448347 104 101 83
-19.3649 20.9828 44.0392 -0.474929 -0.743456 -0.470866 104 97 80
-4.39885 17.5181 60.1569 0.12372 -0.969373 -0.212154 95 91 78
-4.53153 17.837 60.9608 -0.815394 -0.157062 -0.557192 91 88 75
-4.70111 17.8628 60.3064 0.246644 -0.948766 -0.197511 82 79 66
-5.34573 17.83 59.3355 0.0237125 -0.978612 -0.204343 100 96 82
-5.19581 17.7187 58.0438 0.280817 -0.94218 -0.182862 96 92 78
-4.22005 17.3409 57.2655 -0.759593 0.0932747 -0.643675 106 101 86
-6.81922 18.0558 54.3911 0.173947 -0.972622 -0.15411 108 100 82
-6.81765 18.0515 54.3807 0.173061 -0.972792 -0.154029 108 100 82
-6.48517 17.9711 54.2849 0.074591 -0.983117 -0.167083 106 97 81
-5.66684 17.6818 53.5172 0.32897 -0.932114 -0.151468 96 90 75
-5.90056 18.0361 53.9563 0.600246 -0.777871 -0.186071 105 99 84
-6.1431 18.3248 54.622 0.831898 -0.496338 -0.248184 107 100 85
-5.29983 17.6789 53.436 0.251873 -0.955421 -0.154048 91 86 73
-5.08285 17.12 51.53 0.516754 -0.840763 -0.161502 93 87 75
-4.96601 17.6399 52.9281 0.266955 -0.951594 -0.152328 69 65 54
-5.63877 17.914 53.2051 0.328929 -0.921304 -0.207375 97 92 79
-5.61349 17.8137 52.7565 0.314314 -0.938105 -0.145488 96 92 79
-5.30775 17.7418 52.7669 0.132937 -0.978015 -0.160668 93 89 76
-5.30239 17.7247 52.7205 0.240595 -0.958086 -0.155517 93 89 76
-5.00649 17.6972 52.7875 0.118125 -0.980431 -0.157485 74 69 58
-4.98159 17.6779 52.9931 0.268581 -0.951178 -0.152071 71 67 55
-5.59751 17.7812 52.3207 0.340725 -0.929436 -0.141616 89 86 72
-5.06525 17.5954 52.0829 0.257805 -0.954994 -0.146709 94 90 78
-4.69972 17.7235 52.0809 0.118447 -0.981164 -0.152605 70 67 55
-5.62067 17.6935 51.1972 0.0721768 -0.986027 -0.150139 87 83 69
2.60409 15.7531 47.9995 -0.0898636 -0.981297 -0.17024 97 88 71
3.06774 15.7806 47.8534 -0.0148513 -0.985738 -0.167629 88 80 63
3.07005 15.7915 47.9073 0.0400868 -0.984187 -0.172536 90 81 64
-6.9663 17.5321 49.5406 -0.738016 -0.461914 -0.491902 104 97 81
3.29666 15.7585 46.4413 -0.116417 -0.981381 -0.152769 96 91 72
-10.5923 18.9309 50.1735 0.8258 -0.552093 -0.115101 92 85 69
-9.77304 19.0393 50.4994 -0.481967 -0.814059 -0.324062 104 96 81
-10.8037 18.9369 49.5436 -0.0983883 -0.981452 -0.164533 106 99 82
-10.5502 18.8964 49.7071 -0.0168121 -0.989915 -0.140665 100 92 76
-10.287 18.8892 49.538 -0.0193662 -0.990039 -0.139454 106 99 82
-8.99282 18.6239 49.4189 -0.0778446 -0.984856 -0.154917 108 101 84
-11.7644 19.2518 49.1654 -0.0664836 -0.986392 -0.150369 114 107 89
-11.2489 19.1647 49.0474 -0.157556 -0.97088 -0.180465 111 104 86
-11.0534 19.2024 49.4002 0.260163 -0.96287 -0.0720855 112 105 88
-10.406 18.8266 48.1824 0.102607 -0.989744 -0.0993942 105 98 80
-9.96004 18.6182 47.8063 -0.18289 -0.965961 -0.182948 108 101 83
-12.4731 19.5416 48.7793 0.0447154 -0.993115 -0.108273 120 113 94
-12.0589 19.2734 48.0339 0.156295 -0.984726 -0.0767244 118 111 92
-13.4337 19.7156 48.361 -0.142608 -0.97428 -0.174475 111 103 85
-11.5679 19.2233 47.5275 0.446108 -0.894141 -0.0387174 116 109 89
-11.5679 19.2233 47.5275 0.446108 -0.894141 -0.0387174 116 109 89
-13.7297 19.8571 48.077 0.0941825 -0.99206 -0.0833492 115 108 90
-13.429 19.6733 47.9069 0.0167607 -0.993297 -0.114371 122 114 95
-13.4317 19.6733 47.9053 0.0164873 -0.993742 -0.110476 122 114 95
-13.4042 19.726 47.9831 -0.0275259 -0.991734 -0.125324 122 114 95
-13.3234 19.6433 47.8172 0.0384559 -0.99401 -0.102297 121 113 95
-12.9941 19.493 47.3312 0.182299 -0.981471 -0.0589987 117 110 92
-12.2781 19.3631 47.3525 -0.0150135 -0.992833 -0.118568 122 115 97
-13.9264 19.8028 47.6541 0.186586 -0.980944 -0.0541789 122 115 98
-13.6095 19.7531 47.5863 0.113071 -0.990739 -0.0751771 107 100 82
-13.3015 19.6433 47.4567 0.0126239 -0.994071 -0.107996 124 116 99
-12.9757 19.5227 47.1512 -0.00374917 -0.993643 -0.112517 125 118 100
-12.7234 19.5316 47.3061 0.0735972 -0.993407 -0.0878952 122 115 97
-12.917 19.5565 46.6794 0.105897 -0.99171 -0.072777 118 111 93
-14.8188 19.9214 46.8897 0.186211 -0.981523 -0.0440153 122 115 98
-14.4311 19.8302 46.5041 0.01973 -0.995026 -0.0976447 120 113 96
-14.2142 19.8636 46.7435 0.00624126 -0.994606 -0.103534 118 112 94
-13.4241 19.777 46.8054 -0.0259831 -0.993044 -0.114841 119 112 94
-15.2341 20.1242 46.7005 0.362883 -0.931817 0.00583011 123 117 99
-15.2361 20.1257 46.7056 0.373423 -0.927629 0.00775038 123 117 99
-14.7499 19.8884 46.2639 0.247843 -0.968553 -0.0218982 121 114 97
-14.7491 19.8873 46.2618 0.251243 -0.967698 -0.0209036 121 114 97
-14.7491 19.8873 46.2618 0.251243 -0.967698 -0.0209036 121 114 97
-14.4581 19.8538 46.2677 0.228087 -0.973045 -0.0340621 118 111 94
-15.8311 19.9841 45.6983 -0.600591 -0.280225 -0.748842 121 115 97
-18.0186 20.5574 45.4548 0.511135 -0.856525 0.0714607 106 99 84
-16.1787 19.9508 44.3707 -0.012732 -0.99471 -0.10193 106 101 86
-16.1675 19.9262 44.3182 -0.041958 -0.99246 -0.115161 105 100 86
-17.6222 20.5289 45.1302 0.33422 -0.941889 0.0337843 104 99 83
-19.063 20.9803 44.8427 0.312028 -0.949094 0.0431159 99 95 79
-18.4095 20.876 44.6733 0.102174 -0.994049 -0.0377713 102 99 83
-4.72142 17.7083 59.168 -0.183163 -0.956809 -0.22576 86 83 70
-4.1505 17.4077 55.6606 -0.26497 -0.937522 -0.225485 80 77 60
-5.28255 17.5714 53.6453 0.246678 -0.957953 -0.146548 91 86 73
-4.98272 17.6388 53.401 0.256598 -0.955648 -0.144551 74 70 58
-4.67096 17.686 53.098 0.261997 -0.954405 -0.143068 73 69 58
-5.89301 17.8121 52.8242 0.233371 -0.963052 -0.134418 97 92 79
-5.95403 17.9385 51.1685 0.0991059 -0.986483 -0.130495 96 90 75
-7.11964 18.0466 50.4341 -0.425912 -0.864241 -0.267742 102 96 79
-7.00936 18.1407 50.4313 -0.548406 -0.762302 -0.343724 102 95 78
-11.5033 19.1541 48.8022 -0.0943675 -0.984636 -0.146924 109 102 85
-10.0211 18.6946 48.1475 -0.213547 -0.959088 -0.185873 110 103 85
-9.86066 18.7456 48.5879 -0.270166 -0.9398 -0.209253 109 103 85
-9.88346 18.7592 48.5324 -0.20052 -0.962845 -0.18089 109 103 85
-11.7444 19.2155 48.0015 0.147745 -0.986764 -0.0668394 121 114 96
-12.3532 19.3632 47.7543 0.386992 -0.920901 -0.0466853 116 109 90
-14.2671 19.8799 47.7222 0.203287 -0.978494 -0.0350007 120 113 95
-13.2474 19.5645 47.3061 0.050818 -0.995264 -0.0828727 125 117 100
-12.3549 19.3689 47.1045 0.185055 -0.981655 -0.0459036 116 109 90
-13.9247 19.8007 46.7893 0.0589924 -0.995623 -0.0724867 114 107 88
-13.646 19.7753 46.8984 -0.235313 -0.9509 -0.201041 112 105 87
-14.7072 19.8402 45.8593 0.243054 -0.969806 -0.0200329 120 114 97
-17.2449 20.5517 46.1689 -0.100601 -0.984533 -0.143435 118 113 97
-17.2449 20.5517 46.1689 -0.100601 -0.984533 -0.143435 118 113 97
-18.3697 20.7199 45.7276 -0.177574 -0.965309 -0.191432 101 93 79
-18.0726 20.6208 45.5245 -0.0965603 -0.985604 -0.138782 108 101 86
-17.3123 20.4077 45.4301 0.421864 -0.88069 -0.215443 101 95 80
-17.2189 20.4286 45.2246 -0.19437 -0.961532 -0.194102 105 98 83
-17.5277 20.4756 44.9533 -0.269556 -0.931163 -0.245511 89 86 69
-18.2652 20.8565 44.7249 -0.117054 -0.983025 -0.141282 103 100 83
-17.6168 20.6645 44.5036 -0.105868 -0.985696 -0.131134 102 99 82
-17.6238 20.4916 43.8255 -0.00541092 -0.997268 -0.073673 106 102 85
-17.2824 20.362 43.7553 0.0730756 -0.99669 -0.035631 106 102 85
-18.8074 20.7792 43.3244 -0.122082 -0.982514 -0.140577 99 92 75
-18.5084 20.7365 43.1689 -0.261717 -0.935167 -0.238677 99 93 75
-18.2497 20.6186 43.2488 -0.0329937 -0.995896 -0.0842777 107 101 84
-4.40783 17.4866 59.0706 -0.158782 -0.961747 -0.223226 94 91 78
-4.55218 17.6562 58.7738 -0.0604562 -0.976739 -0.205734 92 88 75
-4.68665 17.7413 59.0589 0.0200195 -0.980501 -0.195493 87 83 71
-5.57825 17.9199 58.49 0.124961 -0.978662 -0.163114 101 94 79
-4.5423 17.6221 57.5017 -0.243533 -0.945925 -0.214282 91 88 74
-3.65965 17.1946 56.3851 -0.460841 -0.846772 -0.265713 84 79 62
-4.38709 17.5739 56.8934 -0.308615 -0.924006 -0.225766 84 80 65
-3.67794 17.2317 56.2396 -0.158063 -0.968424 -0.192799 73 68 51
-3.96689 17.3856 55.4769 -0.397556 -0.885161 -0.241741 83 79 63
-3.69436 17.3111 55.2657 -0.324663 -0.919997 -0.219545 91 88 70
-4.99368 17.6605 53.932 0.225123 -0.96542 -0.131464 75 71 60
-6.16014 17.9565 53.8781 0.468193 -0.872781 -0.138016 106 99 84
-5.71023 17.8296 51.5543 -0.027042 -0.990594 -0.134138 87 84 71
-4.67687 17.64 51.4494 0.158803 -0.980382 -0.11676 72 69 57
-4.69613 17.6788 51.5513 0.156537 -0.980791 -0.116386 65 63 51
-5.60837 17.7015 50.7944 0.0706241 -0.990726 -0.116083 87 84 69
-9.87831 18.8257 50.8974 -0.482826 -0.818181 -0.312184 98 91 75
-6.65749 18.0476 50.6967 -0.626477 -0.691468 -0.359721 100 94 77
-10.1941 18.8879 50.1635 -0.551489 -0.751215 -0.362679 99 91 75
-8.29595 18.4545 49.6826 -0.280066 -0.940526 -0.192284 100 93 77
-9.64365 18.6971 48.8223 -0.293393 -0.934441 -0.201845 114 108 90
-9.47997 18.7642 49.3142 -0.101125 -0.986372 -0.129787 108 102 86
-9.99947 18.8821 48.7858 -0.548601 -0.758297 -0.352168 109 103 85
-13.7758 19.8052 48.0186 0.178939 -0.983549 -0.0247194 118 111 93
-13.7742 19.802 48.0131 0.17159 -0.984803 -0.0268141 118 111 93
-13.1962 19.5333 46.5042 0.118551 -0.991463 -0.0542779 121 114 96
-14.9329 19.7291 45.9373 0.408536 -0.911251 0.0521479 124 118 100
-15.0492 19.8715 45.9422 0.574166 -0.815479 0.0729938 122 115 97
-15.2873 19.8531 45.2633 -0.175647 -0.969509 -0.170883 122 117 100
-18.2095 20.6971 45.4531 -0.0870111 -0.987375 -0.132361 106 99 85
-16.8828 20.3813 44.6725 -0.286389 -0.925231 -0.248855 64 59 44
-18.3042 20.632 43.6394 -0.222368 -0.956098 -0.190864 110 104 87
-18.349 20.8033 44.0159 0.71605 -0.689599 0.108288 108 104 87
-18.0153 20.7013 43.8746 0.53445 -0.834098 0.136545 115 111 94
-17.122 20.4072 43.7338 -0.326118 -0.905758 -0.270646 106 104 87
-4.15079 17.4248 55.8639 -0.410929 -0.880754 -0.235394 72 68 52
-3.41891 17.2862 55.1517 -0.111494 -0.97821 -0.175141 96 92 74
-3.94787 17.3191 54.7996 -0.319516 -0.925245 -0.204527 99 96 78
-3.66349 17.2389 54.5436 -0.123134 -0.978468 -0.165648 103 99 81
-4.68067 17.7272 53.6917 0.197931 -0.972008 -0.126583 75 73 61
-6.22286 18.0858 53.3529 0.297866 -0.948088 -0.111381 98 93 78
-4.82351 17.6526 52.5992 0.301412 -0.946069 -0.118764 43 41 29
-4.68734 17.7358 53.217 0.14725 -0.981501 -0.122366 67 65 53
-7.62034 18.286 52.3628 -0.299298 -0.933187 -0.198955 100 94 78
-6.8748 18.0752 52.019 -0.397156 -0.884847 -0.243542 97 92 75
-4.34998 17.6084 52.5047 0.146679 -0.981906 -0.119771 83 81 68
-4.34998 17.6084 52.5047 0.146679 -0.981906 -0.119771 83 81 68
-7.82926 18.394 51.9836 -0.613666 -0.705639 -0.354243 104 97 80
-7.53326 18.2945 51.6918 -0.361588 -0.897025 -0.254167 103 96 78
-7.30194 18.3069 52.204 -0.604204 -0.721188 -0.33886 101 94 76
-5.97826 17.9163 51.9712 -0.0182127 -0.990722 -0.134675 92 89 75
-5.98719 17.9868 51.7024 -0.254824 -0.949288 -0.184168 92 89 75
-5.71877 17.8336 51.5659 -0.202674 -0.966102 -0.159904 86 84 70
-5.54659 17.7363 51.6611 -0.745115 -0.515551 -0.423096 84 82 69
-4.98543 17.7398 51.9706 0.011293 -0.992426 -0.122325 83 81 68
-4.39819 17.6006 51.9414 0.137979 -0.983733 -0.115023 84 82 68
-8.49647 18.6938 51.9219 -0.590861 -0.728446 -0.34677 102 95 79
-7.83989 18.5215 51.7177 -0.710824 -0.548465 -0.440358 99 93 76
-7.45718 18.1503 50.8272 -0.748225 -0.451694 -0.485935 105 98 80
-5.00867 17.6922 51.4455 0.136942 -0.984706 -0.107707 94 91 79
-4.41353 17.5532 51.4255 0.115105 -0.986947 -0.112633 79 77 62
-9.67434 18.8392 50.8329 -0.628 -0.668654 -0.398144 101 94 78
-8.9641 18.6391 50.9614 -0.701179 -0.54397 -0.460918 99 92 75
-8.44979 18.5709 51.0979 -0.383291 -0.894999 -0.228177 98 91 74
-7.90079 18.3469 50.6699 -0.576816 -0.748729 -0.326631 100 93 76
-10.9502 19.1222 50.369 -0.224405 -0.959204 -0.171961 101 94 77
-9.15176 18.8156 50.6492 -0.66376 -0.618783 -0.420156 100 93 77
-8.94186 18.7067 50.4624 -0.675831 -0.599527 -0.428743 98 91 75
-8.80385 18.6395 50.3451 -0.602883 -0.712722 -0.358553 95 89 72
-6.84349 18.1393 50.2692 -0.713749 -0.561322 -0.418903 103 96 79
-6.22386 17.9718 50.4595 -0.247507 -0.952636 -0.176705 102 95 79
-10.3579 19.0075 50.1457 -0.139186 -0.98089 -0.135952 99 91 75
-11.0485 19.1701 49.6973 0.0674854 -0.99522 -0.070595 111 104 88
-10.3135 18.9668 49.6659 -0.152272 -0.978784 -0.137096 106 99 82
-10.0726 19.0166 49.6142 0.00324871 -0.996153 -0.0875734 111 105 87
-11.5478 19.2633 49.3736 -0.412749 -0.871416 -0.26509 112 104 88
-10.6635 19.0704 49.3731 -0.468521 -0.834719 -0.289367 113 106 88
-10.71 19.116 49.2655 0.353027 -0.935295 -0.0243928 109 102 84
-10.1771 18.9745 48.9769 -0.246271 -0.954741 -0.166794 109 102 85
-12.8863 19.5796 48.5334 0.0283033 -0.997398 -0.0663009 125 116 99
-10.8546 19.1533 48.6868 0.0854185 -0.994033 -0.0678443 108 101 84
-10.1359 18.9456 48.8807 -0.252592 -0.952703 -0.168982 109 102 85
-10.1125 18.8242 48.3205 0.069391 -0.995587 -0.0631748 110 103 85
-13.1484 19.5804 48.2805 -0.0729193 -0.991915 -0.103861 125 116 99
-10.4293 19.0254 48.4768 -0.201644 -0.968457 -0.146391 102 95 78
-10.4152 19.0338 48.487 -0.26725 -0.947938 -0.173181 102 94 77
-13.481 19.5561 47.1693 0.0497689 -0.997549 -0.0491853 107 100 82
-13.2012 19.543 47.2259 0.109487 -0.993547 -0.0295984 127 118 101
-13.2012 19.543 47.2259 0.109487 -0.993547 -0.0295984 127 118 101
-11.9924 19.2867 47.3898 -0.0551779 -0.994725 -0.0864723 126 119 100
-12.8772 19.4686 46.8423 0.167073 -0.98588 -0.0112566 129 121 103
-12.0455 19.3777 46.8458 0.200321 -0.97971 -0.0063048 116 109 90
-13.4847 19.5668 46.1271 -0.336882 -0.914706 -0.223212 116 109 90
-16.7667 20.3607 45.7906 -0.335231 -0.901692 -0.273078 122 118 102
-15.3338 19.9004 45.6667 0.0931941 -0.992965 -0.0730376 125 119 101
-14.6219 19.7163 45.3014 0.32857 -0.943106 0.0509188 118 112 95
-14.6219 19.7163 45.3014 0.32857 -0.943106 0.0509188 118 112 95
-14.6219 19.7163 45.3014 0.32857 -0.943106 0.0509188 118 112 95
-14.7183 19.6555 44.6967 -0.557046 -0.702548 -0.442861 120 117 100
-15.1398 19.7588 44.41 -0.398651 -0.870917 -0.287369 108 104 87
-15.1353 19.7681 44.4199 -0.374469 -0.88546 -0.275195 107 104 87
-15.1398 19.7588 44.41 -0.398651 -0.870917 -0.287369 108 104 87
-15.1353 19.7681 44.4199 -0.374469 -0.88546 -0.275195 107 104 87
-15.1398 19.7588 44.41 -0.398651 -0.870917 -0.287369 108 104 87
-18.4841 20.5722 43.9537 -0.147885 -0.980949 -0.12597 109 104 86
-18.661 20.5697 43.6876 -0.383746 -0.864491 -0.324644 116 108 90
-18.7103 20.6828 42.845 -0.11186 -0.989456 -0.0920042 109 101 83
-18.7087 20.6806 42.8418 -0.122414 -0.987513 -0.0991659 109 101 83
-5.86983 18.0855 53.2907 -0.595727 -0.739408 -0.313664 92 88 74
-6.62202 18.0076 51.8275 -0.340519 -0.921627 -0.186149 98 93 76
-6.87576 18.1655 51.7262 -0.364604 -0.910977 -0.192833 93 88 71
-4.41364 17.5085 51.7554 0.106009 -0.98761 -0.115705 83 81 67
-8.62023 18.6893 51.4278 -0.499318 -0.816801 -0.288993 96 89 73
-8.58861 18.6205 51.2927 -0.319461 -0.925489 -0.203508 96 89 73
-5.63844 17.7824 50.9655 0.0778466 -0.991672 -0.102597 85 83 68
-5.63844 17.7824 50.9655 0.0778466 -0.991672 -0.102597 85 83 68
-7.95732 18.1706 49.6907 -0.74795 -0.478415 -0.460098 97 90 75
-9.23934 18.8279 49.3002 -0.250645 -0.956788 -0.147427 102 96 78
-13.5427 19.6225 46.2542 -0.26959 -0.949478 -0.160664 118 111 93
-17.3964 20.4785 45.117 -0.173226 -0.968575 -0.178479 108 103 88
-14.8615 19.753 45.4007 -0.464513 -0.830014 -0.308714 120 115 98
-14.4047 19.7283 45.7823 0.316926 -0.947417 0.0442593 118 110 93
-19.0535 20.8553 44.4374 -0.312394 -0.92121 -0.231909 108 102 84
